ply
format ascii 1.0
element vertex 430
property double x
property double y
property double z
property double nx
property double ny
property double nz
end_header
5.078691360030543 -4.511428797947941 59.609814572076139 0.381747987369861 -0.225828013863360 -0.896253414104287
5.067215375129468 -3.997870177020186 59.459221788326154 0.383999011713840 -0.211199997323958 -0.898854448803116
5.086480529417727 -3.667509276764749 59.411172192685562 0.385455876546428 -0.193450884179730 -0.902219775135696
5.101283951195448 -3.370865479616086 59.343635606901302 0.386994142620969 -0.175024935474964 -0.905318621005359
5.187117437643188 -2.702053436757184 59.281664577323163 0.387102014428982 -0.161984329555088 -0.907696594354971
5.279441510423741 -2.267991486873949 59.247673383378824 0.387110934218169 -0.145239872646781 -0.910522105169492
5.232242905624378 -1.783905470097100 59.126571494955918 0.389272051432603 -0.129143059230339 -0.912024857241338
5.249686931969755 -1.538365295685989 59.108737972019384 0.390086049002788 -0.109132013987842 -0.914288290363795
5.311256390126761 -1.339645808105817 59.085421695981829 0.390220158366267 -0.088282987310287 -0.916479319000804
5.259154200086734 -1.027106712742368 59.039567956699635 0.391757510488163 -0.069023205707189 -0.917475803522916
5.285796366100069 -0.603816070247636 59.060281716331708 0.391708720390417 -0.051367769944818 -0.918654249748510
5.366194521289167 -0.127767100348360 59.079979927439865 0.390822909523756 -0.034500745752011 -0.919819086524052
5.391022247853524 0.163520430098702 59.059325086083007 0.390801429829305 -0.014722930186983 -0.920357255510098
5.431492125334767 0.486489884464783 59.083311811304249 0.390170763201889 0.004593425518704 -0.920731055186290
5.428162360532550 0.616041697410074 59.057369520588303 0.390222652944794 0.026923925550723 -0.920326780747831
5.311940890573332 0.947447966286631 59.024345366612593 0.391667586944211 0.046065733048628 -0.918952909335398
5.361202994708822 1.364901705092820 59.107461564082421 0.390171670633896 0.063773866276724 -0.918530871236712
5.485393908396880 1.644846615701842 59.122471844314653 0.387880082154993 0.083626818573174 -0.917908272695461
5.376782899320016 1.799425154520197 59.127814410076837 0.388480679682303 0.105191590733547 -0.915432952625435
5.401868789463105 1.796547212268756 59.134759115748757 0.387013759619220 0.129067512547958 -0.912996126536186
5.403205171248388 2.227076225933670 59.227752712765877 0.385564448988642 0.146003288325893 -0.911056033114380
5.311992876071269 2.510206336676548 59.234151377481901 0.385544170481666 0.165073466104574 -0.907803086244933
5.224900734885065 2.827484514136231 59.222441169318536 0.385461127883874 0.183482447486086 -0.904297467847283
5.256280833188899 2.909327615305571 59.249376238523666 0.383226465523805 0.205151579034723 -0.900583314159047
5.217709081695215 2.877839334600615 59.249234997854899 0.381723974577548 0.228131680504904 -0.895680045319046
5.235142830375022 3.181401263784014 59.325606743731733 0.379395687409788 0.245825420782078 -0.891980254754649
5.182288293172004 3.253424078138693 59.345956267894820 0.377804597442522 0.266552008394760 -0.886686930642385
5.278156483465857 3.258911755355719 59.373392755573668 0.374025145011643 0.288007991754184 -0.881564851604657
5.206578739412723 3.434755840581754 59.420174940688504 0.372433602544409 0.306413005446237 -0.876016142425011
5.185222066422970 3.652195223098222 59.475240646111814 0.370129233400337 0.323950443227958 -0.870666676125191
5.091338244865039 3.978151436829737 59.584882951929288 0.368589858462381 0.339369623284971 -0.865430398720832
5.202532198384681 3.910429322504431 59.596973804546671 0.364119005643685 0.360222231985813 -0.858869776690397
5.122747896557581 3.613645289058759 59.385085908304220 0.362448192527419 0.384028381394841 -0.849207577696328
4.995902950033887 4.312331945048882 59.713848854616110 0.360856311800058 0.392674855573751 -0.845925043980962
5.022070744651060 4.607332280984636 59.906732532280103 0.357146375513669 0.406826915354602 -0.840796246067089
4.992967593379380 4.460259890940698 59.687057240201185 0.354865335097097 0.427580305182606 -0.831411857364552
4.851146076686042 4.338048940513772 59.606448209270091 0.353297530317390 0.446568763749638 -0.822044520883603
4.754188795623794 3.949111030626952 59.426338233598457 0.350860433952466 0.468442338236772 -0.810838289447380
4.854103215678073 4.473189670953502 59.677599081428447 0.346377914595293 0.478303723178452 -0.806999311445956
4.764073062358953 4.961552617136007 59.963543225888280 0.343967308144534 0.487684964309701 -0.802402558890516
4.893701910088424 4.695283925661755 59.856652177140603 0.338697498210986 0.506866190893103 -0.792698346936043
4.928986648976679 4.865890148624693 59.954514557576303 0.334772097929261 0.519928691196426 -0.785876452452173
4.078677465160396 -12.939874848251065 62.411918771225025 0.371068266757462 -0.419373093744178 -0.828513457735630
4.112824064673536 -12.399957734187801 62.142733547079430 0.373890798651754 -0.409385191721069 -0.832231599666257
4.304739169609121 -11.790472869969143 61.900132812107607 0.374631952849492 -0.400159128901917 -0.836375257561243
4.516953032349033 -11.373825961509915 61.817918014266034 0.374803119025350 -0.387820787882987 -0.842091241169678
4.469231770722335 -10.832459008773569 61.548315364832959 0.378547153265728 -0.376992047675133 -0.845327775921343
4.507610677382797 -10.185012121858307 61.329951350482482 0.380844601115500 -0.367147334691320 -0.848622545322852
4.620146092711913 -9.611400179633073 61.095670306812707 0.382462730672361 -0.356423187112696 -0.852458075998503
4.762189256333151 -9.171675316195916 60.987191231412716 0.383369334228411 -0.343344224431380 -0.857404628587273
4.764004914788281 -8.888208039873049 60.859223247547298 0.386276315132621 -0.327851564812678 -0.862150775570864
4.842428474639924 -8.185043887386815 60.659842778800567 0.387802332411355 -0.317839197156086 -0.865209567519620
4.865950065976993 -7.564786180206362 60.455978211612859 0.390137870659529 -0.306498116038972 -0.868246132580969
4.942515210402682 -6.996574194964804 60.281965663520396 0.391738753284126 -0.294246938612223 -0.871756553340859
4.971704368904884 -6.472887545994364 60.087744420833666 0.394051924145844 -0.281176095150803 -0.875021762353774
4.983264090570632 -6.079087460118959 59.978509494506007 0.396307485852445 -0.265782601316938 -0.878805999919502
4.994369798897495 -5.575123485330607 59.817648950632368 0.398597673612008 -0.251822593464092 -0.881875998092767
5.031886104996811 -4.884958501012598 59.670011960846395 0.400168428857317 -0.240237016436748 -0.884393240860329
5.071866859260705 -4.480312036863580 59.585342384689213 0.401719313675150 -0.224272656282766 -0.887875761953348
5.117649568197404 -3.871149999655341 59.434655597787028 0.403200006468953 -0.211200000005163 -0.890406825435012
5.238609343236178 -3.647882789210543 59.455705973036594 0.403200009883579 -0.191999506558156 -0.894743505990016
5.359569411194276 -3.413030137098854 59.445627240231907 0.403200008901069 -0.172799997927455 -0.898648937871986
5.456359024418084 -2.656322725795421 59.371829936879976 0.403199681013229 -0.161203569628350 -0.900801546607191
5.553126960404263 -2.131249657595257 59.325692052300745 0.403199680822228 -0.145995132364927 -0.903391077391514
5.503050532069363 -1.663736137355539 59.204870925308803 0.405443977807285 -0.129795412847997 -0.904858183177576
5.422165596263241 -1.534289990248861 59.158119912363148 0.407802059827383 -0.108190958003849 -0.906637853063037
5.461378274008119 -1.430344428099755 59.199566495363747 0.407951354613725 -0.085995786456322 -0.908944672122889
5.510175079836593 -1.072475531481476 59.191261651332731 0.407953775114035 -0.067624588040586 -0.910494718525346
5.472944755010499 -0.561589299001027 59.111604337127886 0.409281942440892 -0.051543546016320 -0.910950906721034
5.550584443235238 -0.194223854069764 59.136137758723599 0.408463142939453 -0.033156349621012 -0.912172416454166
5.569037868837171 0.115128607139484 59.110918911128429 0.408556617742208 -0.013839410331009 -0.912628051738898
5.466862157894639 0.477783108406468 59.071093661958820 0.410134133736380 0.004685300163556 -0.912013179897465
5.441384159490902 0.646677602678112 59.101843286499751 0.410147552684083 0.026177269741198 -0.911643425674838
5.467143210038614 1.013840242478867 59.132852935116574 0.409371348281112 0.044574044652814 -0.911278362384290
5.544363831906843 1.429562968063577 59.166141747113379 0.407804252010672 0.062189176781161 -0.910949064620683
5.645424976585801 1.737078818783967 59.244112697699762 0.405499078275921 0.081361167684279 -0.910467384319960
5.693294313820264 1.786660760739824 59.242820040588718 0.404018341558210 0.104419224409575 -0.908771591357397
5.622984704501587 1.766649785057625 59.206883318715683 0.403981418012826 0.128340220513116 -0.905719493937826
5.577318941253594 2.140009365537169 59.271488587657252 0.403199680822228 0.145995132364927 -0.903391077391514
5.577286298400352 2.464987816588913 59.324689437485972 0.401730656060739 0.164256069603813 -0.900906445519909
5.485788518148176 2.815679998980354 59.317384523983300 0.401656248779722 0.181995309441968 -0.897524353517677
5.441286917575880 2.780103156547234 59.354060395864956 0.400149933520303 0.205058643242329 -0.893213850953573
5.473549547298294 2.845525885555382 59.342557570843276 0.397868171576056 0.226565155272579 -0.889027079713008
5.584071771935058 3.193424884768078 59.475829832605662 0.394086994904857 0.243448444572074 -0.886243925385273
5.484205308992333 3.253909883379347 59.475166437657442 0.393114833274214 0.264176515868809 -0.880722144789833
5.575954167720663 3.291825567670891 59.517551099076648 0.389334743668570 0.284980492013673 -0.875902150096787
5.546463423472005 3.405068204224559 59.565188072396516 0.387034730038404 0.304160189913422 -0.870454304725947
5.462306670134854 3.709217545895523 59.628053244084469 0.385560054126617 0.320302313947242 -0.865303341228914
5.284801214456490 3.954500862375916 59.603209663074772 0.385451056139840 0.337069450030611 -0.858959643508788
5.336023707345912 3.828849932628561 59.570914035668345 0.381742117727071 0.358607179570591 -0.851864922574980
5.171201245595405 3.498129980973722 59.376799650202663 0.380831543377351 0.382399262994843 -0.841865867718739
5.050891739498262 4.158573638939110 59.620894664593322 0.379310533677798 0.391855424730225 -0.838196185359108
5.068022621864859 4.705959481568719 59.935665745182263 0.375584724587479 0.402392958886074 -0.834874853672967
5.117762917905498 4.424555565982882 59.762356632717669 0.371784598454130 0.424529554275689 -0.825560942571041
5.104294815405819 4.382103135960591 59.712501656497921 0.368609927236060 0.442664570349615 -0.817419598309349
5.049415784220411 3.923346168873437 59.517929791645514 0.365458949150475 0.465365079657681 -0.806148310871536
5.170537723322553 4.359192765386567 59.808451190889343 0.360304658305532 0.475983329773487 -0.802259573318435
5.141935572249356 5.093411793835507 60.198965531132515 0.357238135083707 0.482434412198279 -0.799773688469942
5.156385803150439 4.775514244560469 60.021837000630939 0.353384144600257 0.502212172984083 -0.789241775156225
5.071006963168202 4.888153932356047 60.036814785317475 0.350907757865831 0.515984590233554 -0.781424115388748
4.486129352297777 -12.803570603345580 62.541711523850786 0.383348092291614 -0.417854331577169 -0.823675905753336
4.566464762680525 -12.260888553688261 62.289781322022755 0.385642158061903 -0.407969462552302 -0.827551233187495
4.649904352136733 -11.828141717103044 62.080926293974457 0.387935205037706 -0.396436245582321 -0.832072460715379
4.769172916179755 -11.372274175365007 61.935441552524118 0.389468681040673 -0.384697687131942 -0.836852338231646
4.726153601834710 -10.828461739967238 61.660638943676553 0.393237929412414 -0.373965239886020 -0.839948766430685
4.714689983119410 -10.079693576433524 61.370982275041449 0.396309318195150 -0.365569595492884 -0.842198192329373
4.733726785540895 -9.464112997624735 61.073448046692604 0.399336145211832 -0.355502103256888 -0.845073309072819
4.832761112503729 -9.077332057641488 60.966742323080688 0.400961785689339 -0.341787507909640 -0.849947613593764
4.865802943431156 -8.775293172154324 60.913282869472361 0.403199256934300 -0.326399394075027 -0.854923268343472
5.082815512506549 -8.150678492186909 60.736598512116210 0.403209369077831 -0.315628221012772 -0.858953450885536
5.119093120580430 -7.544887188524594 60.540391429489787 0.405448624226393 -0.304162933382819 -0.862030349273669
5.150480742043026 -6.936264954913916 60.328910880720763 0.407788806565691 -0.292580430753922 -0.864930621945817
5.154996002277137 -6.299193256909295 60.152602903914278 0.410194057373761 -0.281004712867311 -0.867627331658940
5.164192284005114 -6.010410206571635 60.073327775644060 0.412560698244012 -0.264233635080951 -0.871765023590830
5.183283706273379 -5.561159997770400 59.928986332063822 0.414811889235314 -0.249599795623151 -0.875003450606860
5.231799762466228 -4.979269731241704 59.813210952025116 0.416291651805868 -0.236525469965629 -0.877927652312126
5.376963615190750 -4.483830307890756 59.750824485722084 0.416361020876631 -0.222036589820116 -0.881670716920792
5.425838883324662 -3.830158671373674 59.588397516338446 0.417859532957652 -0.209740265963897 -0.883969700583570
5.548782550849069 -3.520394349827601 59.591833542348610 0.417895506618253 -0.192010961856242 -0.887972486102647
5.579428864646502 -3.299719829916191 59.544179218102265 0.419313293449386 -0.172788956295222 -0.891246508278735
5.676129019332262 -2.647139476490588 59.490226358231034 0.419372404696827 -0.159743285616786 -0.893649186694172
5.678072121663721 -2.086085772217887 59.393565379321799 0.420860513769581 -0.145223341290247 -0.895425378853035
5.677423434009281 -1.776369806627786 59.315633849818127 0.422398646784547 -0.126794979473025 -0.897497864273235
5.555741960313803 -1.618627854021269 59.239732242939532 0.425398392348448 -0.105827979759956 -0.898797333377933
5.600088472612264 -1.427323486257163 59.272886060311087 0.425500251214284 -0.085179001576879 -0.900940660591444
5.650825795234859 -0.974664858334398 59.258291281695016 0.425505165292602 -0.068434370971000 -0.902364721816583
5.656801031028110 -0.378422854324390 59.193612982612358 0.426192966727260 -0.053818873313129 -0.903029946340387
5.729875405203089 -0.079684715385791 59.223463263747377 0.425467622458343 -0.034571160247583 -0.904313074725109
5.752210389142952 0.019659540712530 59.205507480340650 0.425516423824806 -0.012240708248701 -0.904867911972194
5.651381148438730 0.325162197222722 59.161650643634481 0.427057448442019 0.006970622081267 -0.904197625609575
5.622937873170549 0.586264590741211 59.190244246850789 0.427100505830347 0.026835935398668 -0.903805836720886
5.580113527007363 1.040461412396558 59.126673568958516 0.427754412475075 0.043759178311245 -0.902835143822851
5.581698885683384 1.539330870081020 59.199296935608452 0.426947890783670 0.059890552201173 -0.902290762621680
5.630066837170638 1.783149552243892 59.253040138537678 0.425432575122917 0.079843305153752 -0.901461130968168
5.773914529128440 1.816497516378214 59.298803555779088 0.422472824159021 0.102919551763429 -0.900513341773411
5.804220211838132 1.834816812063760 59.316580176638446 0.420862180647613 0.126025036921645 -0.898327732494903
5.807174131066571 2.095398629833376 59.388637043514635 0.419293433966100 0.145214295611387 -0.896161717874070
5.758712237694194 2.406149448391973 59.418203951006674 0.418509062732007 0.163510758556729 -0.893372484603919
5.752316995780866 2.695360177355740 59.437645755772081 0.417100119913395 0.181998349402910 -0.890451621809320
5.627457371132948 2.805766351239779 59.402153337369697 0.417096086933140 0.202840919444597 -0.885938155665469
5.536410240379364 2.853990958015357 59.400655254937675 0.416219251737437 0.224221317934797 -0.881184620307635
5.545421328231871 3.143958445018242 59.477061412047696 0.413875293961460 0.241807459863978 -0.877631126044676
5.599335279246375 3.204673084427711 59.481010175947681 0.410897030981266 0.262572683334394 -0.873051668515304
5.587203495198693 3.281182149356045 59.492374289965468 0.408556477094111 0.282641398258847 -0.867868333916345
5.652397611696916 3.480704802096177 59.618413330802156 0.404771148606448 0.300420761957175 -0.863659471690601
5.673399084742773 3.679248235395605 59.695859343561850 0.401673873043551 0.317968662992438 -0.858809658229922
5.568220289423472 3.837198397492358 59.741227106582251 0.400078939480036 0.335568188472629 -0.852836932285257
5.456879976129898 3.702104882353410 59.632337822262613 0.398595693779149 0.357049796255087 -0.844770333223723
5.446738694282878 3.427300637408049 59.464129279139428 0.395712235424113 0.380169399164796 -0.835992257544488
5.271631898479104 4.086974632891142 59.683900680591371 0.394843414213312 0.389575845073315 -0.832063302392184
5.288714683679281 4.794739816098168 60.081229083378076 0.391007533033854 0.397831332834671 -0.829965866602819
5.444879498174164 4.507898218601127 59.965487762170859 0.385653795065431 0.419897955629523 -0.821557579972200
5.429375062306931 4.459154507353468 59.920021553900199 0.382408349459512 0.438012158759627 -0.813578025171761
5.307508662178481 3.868521677633112 59.627825554764982 0.380038174631486 0.462350239451389 -0.801126233437659
5.332385094146879 4.218065590531602 59.754614583437608 0.376366558874059 0.474439797702336 -0.795773266526004
5.102158092970352 4.982600592358423 60.148182469900910 0.375531724094235 0.480079733855827 -0.792779523789389
4.987700123688484 4.767847675527584 59.980058953539675 0.373203520891214 0.498380982706750 -0.782518707808737
4.933725621926857 4.871221009604774 60.009082671952768 0.370141087150628 0.512204946279158 -0.775010753867400
4.723173417903677 -12.792685449697320 62.636509082439538 0.397662048635781 -0.414720561221778 -0.818456932999341
4.797638251766632 -12.085546123599990 62.296382808705197 0.400139867513291 -0.407054222701990 -0.821093749949983
4.689817063763769 -11.689880378152505 62.083063234988323 0.404761962750581 -0.394796992451807 -0.824804878902462
4.757855680099183 -11.229732834250964 61.909486707693205 0.407103178249643 -0.383206336758391 -0.829107897518323
4.839205194225514 -10.752897358559718 61.720592147946611 0.409302616521864 -0.371653201585531 -0.833273824057603
5.020659410208232 -10.137983673723809 61.507316160862985 0.410175453787829 -0.361790748962518 -0.837175937945597
5.026179370169146 -9.503239295074998 61.260809540965148 0.413136852184709 -0.351748398531811 -0.839994646112233
5.237863819715237 -9.020235388281797 61.166532090637752 0.413294463051316 -0.339460071995002 -0.844958310410799
5.298990609767543 -8.578761338681304 60.999568336957047 0.415549887129192 -0.326409027993301 -0.848984945538720
5.394043583300878 -7.993737474808324 60.850322769910363 0.417012840362885 -0.314908400240881 -0.852603653774840
5.489754027693461 -7.406689114177841 60.688219601846505 0.418486330544598 -0.303280588035296 -0.856089992972866
5.628860929070264 -6.908129227944780 60.564732297886735 0.419363571522933 -0.290237477234132 -0.860172309301047
5.593874302727336 -6.328505028667873 60.384242615218874 0.422379992817155 -0.277936061885014 -0.862755288115715
5.561372278140219 -5.999614944910359 60.267663223926071 0.425397121199652 -0.261882062025149 -0.866288101536957
5.629192454127882 -5.549896046885390 60.143561809336816 0.427000109123241 -0.247380389777507 -0.869755051472694
5.624350189763394 -4.928270486790996 59.988401093096044 0.429305128801230 -0.234997521634089 -0.872051186118564
5.676632220836407 -4.340758091461923 59.857046295077581 0.430799616822499 -0.221985852820957 -0.874719367164659
5.677225231395866 -3.798121158060088 59.696777776660646 0.433069263531719 -0.208177300454531 -0.876991005974154
5.800356274260533 -3.445592831241083 59.691086179738662 0.433169451464357 -0.191244756806240 -0.880789230924283
5.778403475861470 -3.283777833825807 59.628098050511717 0.435420876302631 -0.171334995793304 -0.883772017941481
5.779663091993729 -2.645933534727716 59.529648792176353 0.436956521017496 -0.158193015993936 -0.885462573139616
5.731555546649791 -2.044971276941832 59.399204216422696 0.439240102304078 -0.144406310241203 -0.886687628249331
5.829430978415377 -1.892972110273009 59.390390002022812 0.439353093956324 -0.123794425314262 -0.889743670442289
5.758961256477903 -1.696733580706892 59.327864271706176 0.441599650646268 -0.103605474227026 -0.891210218892987
5.811953117776262 -1.422476911868436 59.355340155151715 0.441599652102690 -0.084405915547503 -0.893233109934563
5.864945085775243 -0.879149228527321 59.334845758461441 0.441599651955748 -0.069193438436193 -0.894540113952381
5.820695735851800 -0.294214741133383 59.246456073793304 0.443068332036674 -0.054554225326486 -0.894826401960328
5.842759360658569 -0.013798992017735 59.254646187768643 0.443136668773113 -0.035222237460049 -0.895761847131801
5.841121267570745 -0.069218397552932 59.295351743608187 0.443161432085098 -0.010763894216887 -0.896377199449859
5.791125295348468 0.222477431041831 59.272250879281152 0.443917229095261 0.008447053196647 -0.896027980034484
5.793327601709283 0.616732736996401 59.250811805453317 0.443883936482097 0.026107592789170 -0.895703882168606
5.863089579887898 0.964904742308760 59.304496799792801 0.442428038364478 0.044424486598569 -0.895703017667917
5.837125314800410 1.597699593552211 59.305284726105647 0.442419264904174 0.058413315322888 -0.894903949390458
5.786483718980008 1.829747688582473 59.312674044444996 0.442382381096852 0.078347677533025 -0.893397711168022
5.837676929174155 1.805987354785827 59.312120610907868 0.440814510161267 0.102056271917218 -0.891777486256320
5.910537371946432 1.954845709229046 59.371553462383247 0.438532203149701 0.122978022053845 -0.890261710337131
5.813619683251172 2.053950973798246 59.373618770273225 0.438407744161793 0.144401599076673 -0.887100235623386
5.809457884628500 2.300941633054176 59.413866400899622 0.436903262101705 0.163470423804464 -0.884529796053292
5.855037395025189 2.622144601806113 59.465783450391896 0.434671600726522 0.181302557457260 -0.882150770662986
5.825576511021463 2.726769993320827 59.474595580212188 0.433180822463130 0.202030423965133 -0.878372405556228
5.724719043009873 2.963629790612432 59.516016777247110 0.432371543366977 0.220436612448767 -0.874335489602573
5.775031290335136 3.236794034399939 59.614592105624268 0.429361664615883 0.238118602449219 -0.871176269262374
5.780241214393826 3.191337750520940 59.570276509998592 0.427038941497400 0.260247307013797 -0.865972910452080
5.707799982326001 3.205443258865746 59.535527281410729 0.425494148499841 0.281040409494788 -0.860215680991341
5.662536168522408 3.396199279044559 59.609045671778247 0.423212998012306 0.298788215252625 -0.855345755083631
5.573742597723914 3.635232067544536 59.651136162940283 0.421583403196182 0.315605214941648 -0.850094572651280
5.532194504818094 3.792082926141241 59.658669228038427 0.419307225692596 0.333356929566295 -0.844425608323262
5.415608067472238 3.694133530139069 59.563911058218288 0.417764319883800 0.354152499927812 -0.836689297067261
5.330797599753332 3.342252427902849 59.400333488892358 0.415454135676928 0.377858999472032 -0.827417934097957
5.300169133046108 4.000712803124635 59.692675595256212 0.412433773545433 0.387215598796455 -0.824598364349443
5.415139478559421 4.868939338001283 60.221707858410831 0.407133614256545 0.393221227405869 -0.824390251312948
5.545487359743213 4.605066634236231 60.044283914573036 0.402374815059883 0.415154006872724 -0.815929934971776
5.575878530344941 4.434077696847055 59.964690093381172 0.398388841342156 0.434810401389265 -0.807605253782911
5.547516752211457 3.757435155701593 59.673528671077456 0.394625259866567 0.460133477866166 -0.795328917380747
5.563659256468597 4.044767745582206 59.763597135996918 0.390970943896570 0.472968453618943 -0.789583790936675
5.376827464004734 4.927680188165496 60.250816076678781 0.389426213364656 0.477031120855689 -0.787901347936168
5.333159326288182 4.904915724722827 60.166634299516851 0.386359511254202 0.493118723607685 -0.779461514438617
5.336676739948619 4.892773885180944 60.157336725318444 0.382449317173931 0.508381122416558 -0.771544654678959
5.032622684148393 -12.845158979905555 62.777526803705257 0.410814563929102 -0.410814093350116 -0.813918407930834
5.037594233824006 -12.113271147914272 62.458663883626137 0.413970413774677 -0.403181482452446 -0.816133070477279
5.024464094345714 -11.637445653346504 62.173526751353819 0.417744640907530 -0.392365946311500 -0.819474453029574
5.096827452178097 -11.112044104873636 61.968669428474200 0.420113226356077 -0.381715237081525 -0.823285099355310
5.104753975472089 -10.620545820140855 61.806258579819058 0.423042901438885 -0.370141899904445 -0.827060866851586
5.240987044574364 -10.073328158260679 61.598935333313960 0.424629204848585 -0.359441816292180 -0.830958253518332
5.346363976781447 -9.435243193243441 61.397811883298772 0.426313167865451 -0.349517689995333 -0.834322759658904
5.469234786487117 -8.910812907267992 61.241513007082546 0.427782549124064 -0.337890993740342 -0.838350622958009
5.594048393549990 -8.364731754908490 61.064301879774234 0.429247022568611 -0.326389715144001 -0.842150074193549
5.637477657658138 -7.898852514155870 60.933366369007231 0.431504544527861 -0.313340239981176 -0.845944278342458
5.833735042119311 -7.366353295427043 60.840374760579948 0.431656393541309 -0.301046774347630 -0.850319703152760
5.883541937542194 -6.978502787831413 60.707425820340923 0.433870945018402 -0.286551951768237 -0.854192005351638
5.905111370991719 -6.408908377723947 60.552907069031114 0.436144920438900 -0.274201579933136 -0.857082902604828
5.929570324026020 -5.987544751675507 60.430972771204480 0.438404950533589 -0.259592841354471 -0.860472344741627
6.104364024589731 -5.497412677153005 60.347077585220951 0.438538690379749 -0.245793400986205 -0.864447465767382
6.002607499874809 -4.884114384950632 60.142071822804098 0.442277069836216 -0.233400080850243 -0.865976556123889
5.999892150681891 -4.349851583497689 59.994208175063108 0.444620898094053 -0.219733657786978 -0.868348649226561
5.972716237800256 -3.809008601383505 59.885283930344514 0.446954990001450 -0.205840113368462 -0.870552172268419
6.024879433782644 -3.422250888576830 59.765934918972505 0.448544067897375 -0.189741328531685 -0.873387913473221
5.979350123216811 -3.166408819746398 59.737802923903843 0.450790436673753 -0.171247120989201 -0.876049316965887
5.960278596759309 -2.649758487343563 59.581372300009498 0.453063358421574 -0.156598784985365 -0.877616324937539
5.882846222543357 -2.095969970602736 59.507925881627457 0.455411368741052 -0.142117560617298 -0.878864656352495
5.984072669804757 -1.863636619356367 59.487923755397219 0.455531011267159 -0.122908157412830 -0.881694438348855
6.013125620427889 -1.569902960062839 59.462377216355819 0.456317794316720 -0.104381736364054 -0.883673312770929
5.975793884544547 -1.310904756518001 59.447095804408761 0.457688791357086 -0.085162204011940 -0.885024502075462
6.030342294457956 -0.881099654941558 59.438014744857625 0.457694372938733 -0.068421332513922 -0.886473001414730
6.078727724413564 -0.407560462571068 59.401793798438881 0.457792055514514 -0.052273861309262 -0.887521198243521
6.055660636469561 -0.085821211011792 59.382435183040499 0.458547769755203 -0.033765945700437 -0.888028042216846
6.085804071192385 0.036429778747608 59.367753229359941 0.458508395880970 -0.012238883082587 -0.888605795979044
6.091277566635288 0.361391211047518 59.374723165172099 0.458426469590850 0.006284370437846 -0.888710120718038
6.064690836715922 0.648963279173195 59.405835191374841 0.458412728626949 0.025344500087136 -0.888377975046730
6.131380665775499 0.977109435590803 59.459716386522352 0.457005368806582 0.043764239719247 -0.888386618654151
6.052018474934023 1.461198930629455 59.423490405696555 0.457780736304911 0.059823123889693 -0.887050162795888
5.900376908942278 1.681867697662384 59.374776538558919 0.459221771584827 0.079710658655008 -0.884738139451034
5.941845946818820 1.781193401435348 59.382187139685534 0.457785275222091 0.101332092794357 -0.883269182503131
6.011655988072853 1.927023874644767 59.442933261409955 0.455527280995804 0.122077230757384 -0.881811797380358
5.937440439120305 2.113011357512008 59.402431489371793 0.455412184655714 0.142117748816215 -0.878864203127264
5.932964825815436 2.390389572469656 59.451942696240053 0.453866801919277 0.160561114956956 -0.876484486160107
6.049099458959020 2.644729910853002 59.600783086759968 0.450163665654498 0.179055043140276 -0.874809673958021
6.073358900937762 2.737976327657210 59.638101908121271 0.447835614482862 0.199740956778354 -0.871519829141039
6.050730084070185 3.029445550345216 59.666595654492120 0.446210096259709 0.217362206455038 -0.868130301971368
6.052456920953087 3.239829096645128 59.729357720803698 0.443860082197813 0.235799984127296 -0.864515236948961
6.022662764516749 3.157970245276253 59.730211225322535 0.441606779391213 0.258031646593637 -0.859303858801935
5.939681735170950 3.206889166737337 59.704072054814993 0.440141116328172 0.278126138041794 -0.853769084152939
5.866663783260563 3.262593980158396 59.649901935769627 0.438551332149814 0.297884236245083 -0.847901946492816
5.870458765600659 3.541138305756043 59.754909921656093 0.435525783346031 0.313992823581024 -0.843638428937683
5.830584813719351 3.687626345722450 59.761401967144074 0.433153347164222 0.331736413606472 -0.838050791854495
5.865613102479585 3.626205995586773 59.761407435884529 0.429410395233409 0.351844732142147 -0.831752365148010
5.776827608377367 3.363261603209615 59.639688442196480 0.427079674142479 0.374126823972262 -0.823184105482353
5.694184293439520 3.917362719791555 59.861407974713096 0.424703158200691 0.384858142097309 -0.819458014712021
5.776526898654812 4.974516106546609 60.397357399959056 0.420125228803058 0.388584302694547 -0.820059163611121
5.924325059585968 4.682062789789832 60.299998395242675 0.414739729837226 0.410426763773874 -0.812121190508319
5.803385925483905 4.517504553670484 60.081965312773868 0.413030916159200 0.430210360004402 -0.802698267371728
5.765757795695993 3.707132048585578 59.719674659880546 0.409268705597038 0.457148194518239 -0.789629441489892
5.860832708160629 3.845990011265648 59.843735814231017 0.404163946193050 0.471483431417608 -0.783807934698507
5.693704669820605 4.824202296909064 60.324002255396579 0.402556705983903 0.474660019502932 -0.782717039774187
5.573659377884930 4.888320658858035 60.336446127813439 0.400065390136353 0.489151308171380 -0.775034632341855
5.733104315064484 4.968632751289853 60.476160409864804 0.394069002733505 0.503149144712071 -0.769123240618909
5.065925566201692 -12.873671382179491 62.815794501176477 0.426987073323028 -0.406962059619752 -0.807504749982986
5.135274372327643 -12.201188859300260 62.553957357972600 0.429407638653613 -0.398595169590617 -0.810389394454885
5.273627567784239 -11.636381652821896 62.372108349517674 0.430965170808405 -0.388691321937304 -0.814363602944479
5.336489755380725 -10.978415223808955 62.022577507573551 0.433883316799938 -0.380157181301081 -0.816838897768649
5.398354757667498 -10.493819532315086 61.888819737375535 0.436170516545066 -0.368582444192664 -0.820915502551738
5.541489414215413 -10.012766809542221 61.712580877941662 0.437755857544920 -0.357079598749268 -0.825144817194032
5.659429080664751 -9.269782831629012 61.471701761442006 0.439351123492731 -0.348639288462909 -0.827901707224808
5.731845629728596 -8.740971340335356 61.286538228507190 0.441587360877376 -0.337169700985818 -0.831454866754948
5.942941601358186 -8.129022620097764 61.200900615871539 0.441599186107358 -0.326399390685542 -0.835735362773065
6.018553503667619 -7.861445187784341 61.088986600803196 0.443839544591173 -0.311009833707741 -0.840404272950931
6.114597545714297 -7.438146009875553 60.981235482354720 0.445459804103112 -0.297300983106557 -0.844498483345170
6.133047901346792 -6.938710949907854 60.859934137233211 0.447808916264845 -0.284232331105894 -0.847749465625201
6.181847477872438 -6.337932166546935 60.635813257098789 0.450138865827059 -0.272659063714108 -0.850312905021719
6.211916401692442 -5.819602642677058 60.484885046464115 0.452381627850297 -0.259545032547933 -0.853221682133786
6.268899951600602 -5.435210010274144 60.441096333959784 0.453882745617459 -0.244166170278263 -0.856955853310078
6.268664127173039 -4.878783632655967 60.300067259007115 0.456214705327447 -0.231081179526066 -0.859342557489057
6.267871117656220 -4.355224312390066 60.152040005842771 0.458578697641366 -0.217390426695458 -0.861653631368612
6.222069502570669 -3.885309809871860 59.976396676061910 0.461615269941387 -0.202785315912572 -0.863591024853303
6.199357319531039 -3.346929828730682 59.849217360823964 0.463946387280824 -0.188854955477503 -0.865498443395863
6.205579312225204 -3.145356171877033 59.857222051909147 0.465471929876285 -0.169763370020650 -0.868628966070369
6.190170321539981 -2.643151084313439 59.701972802670426 0.467731812832824 -0.155051725924596 -0.870164302618721
6.069360613886026 -2.156017506491015 59.612190275432297 0.470727595880666 -0.139744739054640 -0.871141170180218
6.171741577930234 -1.930212335317718 59.591844016041826 0.470882950902915 -0.120634076326181 -0.873908843174099
6.207789458816379 -1.491240535762981 59.550042722264791 0.471599184549090 -0.104433310751904 -0.875607156627919
6.216619139380974 -1.193882188834029 59.555324571438632 0.472302708213566 -0.085982733998615 -0.877232649454097
6.278489411861408 -0.736560810999990 59.550000841459223 0.472226067406501 -0.069827197712852 -0.878707405068013
6.430647743171807 -0.474254995840893 59.584251662404540 0.470814519687039 -0.050731633468723 -0.880772382297185
6.403318761232917 -0.209753113684997 59.562166324149402 0.471636798916512 -0.031572671790428 -0.881227494069380
6.403359446727915 0.004001847234983 59.595231129764244 0.471636196971032 -0.011617870206169 -0.881716690779172
6.487064945237087 0.317507923571035 59.575293872460591 0.470815712346556 0.006867200894846 -0.882204855211915
6.462088603240918 0.725153949455338 59.609808042235450 0.470767293930449 0.023947271054071 -0.881932357482401
6.486698785032328 1.041191445044407 59.644114986438311 0.469985975091909 0.042351198151598 -0.881657279917787
6.457714086734388 1.463530518688454 59.631073098541634 0.469997576624806 0.059152554738023 -0.880683401248584
6.346526807690356 1.716617615275323 59.605679572049141 0.470805295478544 0.078352239196885 -0.878750988825728
6.236599685185801 1.709476700336785 59.522681956854257 0.471591616112056 0.101313808677899 -0.875977659409187
6.249471328400070 1.940895538076273 59.566517492619830 0.470156739638925 0.120583508908318 -0.874306729672976
6.141570788927019 2.063770731626034 59.567434857786118 0.470084528463843 0.141216604773643 -0.871251058326548
6.114420558358184 2.281892858514034 59.526563197839387 0.469246235472528 0.160457434594981 -0.868367078013704
6.130436945901849 2.573025072700554 59.632851933468551 0.466968962296269 0.178224036707327 -0.866127115954518
6.149201412582229 2.657297904349926 59.667581397668066 0.464671707699462 0.198827940645699 -0.862871748339379
6.125162422744054 3.038793966308836 59.719217548088281 0.463010620262865 0.214974168951637 -0.859887941657139
6.122598097398367 3.180950723336316 59.765583084002685 0.460659674868953 0.234211420665573 -0.856117792350705
6.164448903196217 3.090824464163688 59.734702304937251 0.457699887370725 0.256561572407529 -0.851285482470247
6.136630024937794 3.186666633104878 59.754554890638701 0.455370732045080 0.275812202392621 -0.846501698408255
6.028861120760517 3.311269027597103 59.779641609589120 0.453811578433087 0.294181524868480 -0.841137492747842
5.920187947925932 3.584474929055840 59.828649820230133 0.452285982558687 0.310227464303902 -0.836179592176522
5.916516403368249 3.615078021800496 59.814672492374861 0.449322970937550 0.329427627074823 -0.830413334615783
6.004681225412178 3.594748869396614 59.866150023654988 0.444764624150308 0.348787393283773 -0.824943503150820
5.999867291498340 3.298158577728650 59.705472045627822 0.441545379681325 0.371639877202453 -0.816652606286798
5.915466292748846 3.837522714458085 59.922732637655336 0.439096238057945 0.382495282669135 -0.812952552403410
6.009035788228751 5.031217248358576 60.610088373809198 0.433941296379874 0.384059872954705 -0.814980346561909
6.164260401767635 4.861882599612201 60.516595930020344 0.428741017197068 0.404410190900918 -0.807857374583104
6.035725593842912 4.634479984075995 60.270937219502478 0.427036477369316 0.424900940483698 -0.798184839352436
6.003932388948307 3.750711160689882 59.883059000874255 0.423087136073557 0.452622084667848 -0.784939821744321
6.159115031891034 3.765837853969494 59.975768442546006 0.417116413038683 0.468483471575516 -0.778804940170705
6.041057522541053 4.753096233139068 60.490240600937014 0.414771548661507 0.471544497193631 -0.778209707975518
5.932987503976435 4.899105409186284 60.487143875516914 0.412342415500619 0.485272716262762 -0.771027965271089
6.088819227015080 4.914722457876863 60.593490132445524 0.406316177874352 0.500019279845048 -0.764779630600095
5.061498802819415 -12.763902246030845 62.808046604990203 0.443029565624514 -0.404628044248747 -0.800000593618522
5.172170031956171 -12.126637219418594 62.508144443339845 0.445363904534924 -0.396173574573942 -0.802930564461655
5.424386442493812 -11.494054110344031 62.354875104959227 0.445558104304287 -0.387212891775482 -0.807182849255136
5.520526418886021 -10.819802166376419 62.086627184539168 0.447791566615968 -0.378655549036185 -0.810001659289487
5.618279514896017 -10.422369270034700 61.936277209296684 0.450039059633188 -0.366323218014008 -0.814415216427307
5.800667918643491 -9.930598288103322 61.848391977984612 0.450842035245087 -0.354762967976383 -0.819075512885507
5.982627550003855 -9.244861047809049 61.664618777664103 0.451662297585649 -0.345623435403374 -0.822523926606164
5.946258368986172 -8.663858975149061 61.394507039428241 0.455427806408892 -0.334944122327703 -0.824862381290182
6.076793521605602 -8.078077324132501 61.202698216224853 0.456989531443963 -0.324173402028251 -0.828294738343820
6.076384502498733 -7.857587856686443 61.135329179509164 0.459983183455950 -0.308012016664127 -0.832792932563808
6.126004489472891 -7.291803015895578 60.948455429638798 0.462330255183424 -0.296372507666316 -0.835711715749881
6.096476464489903 -6.853529931433052 60.819178804560963 0.465415439739485 -0.282584747877078 -0.838769532541180
6.206559628930130 -6.254854099684344 60.626563378477428 0.466988621006107 -0.271086990147378 -0.841684900437004
6.267137472768262 -5.671441536175550 60.540873300142366 0.468489082283127 -0.258787616350278 -0.844717082463267
6.407923236320990 -5.367917197407404 60.495632383966750 0.469274761595495 -0.242643267404808 -0.849061507143393
6.471882593683596 -4.819635131262935 60.389268509018954 0.470755641223253 -0.229568555067528 -0.851872880646339
6.534051054419741 -4.366477185134647 60.290749884441894 0.472277030279034 -0.215011666168515 -0.854824186650247
6.509137435424137 -3.993741707476223 60.214247885309618 0.474649189300525 -0.198989154101150 -0.857386414428444
6.487880628922113 -3.359537034673181 60.061419890808111 0.476989408995823 -0.186568181972356 -0.858879163317719
6.523786707929396 -3.128492660076434 60.007246992962720 0.478528842339087 -0.168250141317300 -0.861801622762641
6.536796916781256 -2.622971192208611 59.933463684052590 0.479996441608571 -0.153599636947563 -0.863719032772051
6.496845586688785 -2.217954488654422 59.828432627815701 0.482240121667552 -0.137394005948598 -0.865197868804276
6.575190860336214 -1.992301090300257 59.861622187930273 0.482362753946118 -0.118369565168910 -0.867937105813111
6.659531155205372 -1.408747625893669 59.826812221150995 0.482398878395038 -0.104448355489262 -0.869702169227373
6.647895188284416 -1.174776799264646 59.758422376837963 0.483834059345804 -0.085358886470418 -0.870987062772744
6.608363495303237 -0.733228009285869 59.698107301311339 0.485258964880957 -0.069141801587299 -0.871632461692384
6.684856013768744 -0.494569916536746 59.762137584075553 0.484566622625037 -0.049856496908713 -0.873332421219868
6.555123217143880 -0.143879832343003 59.678176900414513 0.486889378131580 -0.032175956818151 -0.872870804452457
6.581716798408138 0.162871038168976 59.657370732890065 0.486927729491902 -0.013821124845103 -0.873332904887865
6.685904833120397 0.417326711041386 59.721695921406933 0.485402505736782 0.005327525822846 -0.874274570654471
6.793460110018152 0.716663809007777 59.760246223683239 0.483827988434810 0.023819150797720 -0.874838914122138
6.872280895663437 1.018510242882832 59.824744748280750 0.482250535385938 0.042236942476483 -0.875014549484873
6.868126803527716 1.315698356233037 59.885228035371817 0.481466246115817 0.060637343316790 -0.874364550085733
6.834146126429765 1.605343519934827 59.833335950618384 0.481540537907662 0.079152538002410 -0.872842245815002
6.644795030237191 1.624944572083775 59.775229316360701 0.483034409570243 0.101393939006492 -0.869710887768961
6.554100071456475 1.995737763828823 59.781212330282521 0.483088810456298 0.118422757744466 -0.867525937168517
6.471391420675850 2.117826156349460 59.728854368733991 0.483027335060416 0.138962568297156 -0.864507951494196
6.560936810749588 2.261813561469866 59.811999354532972 0.480063654828363 0.158941820835571 -0.862714544274239
6.456438414186408 2.555465172962428 59.785202024258432 0.479909610260365 0.176631950942038 -0.859353198566314
6.518190972593189 2.672621152276200 59.854920049932353 0.476965207204906 0.196559737336823 -0.856661228709494
6.482563559281097 3.046631687363046 59.901506861941776 0.475433752896094 0.212656666846757 -0.853662631636622
6.520592611936216 3.122744408908936 59.956726277853626 0.472467848972973 0.232645761960741 -0.850088278432633
6.414933154618915 3.020976889960028 59.843806500179966 0.471558990624645 0.254941079278318 -0.844178396109183
6.485761677179028 3.155678455427893 59.934033941405659 0.467788365205735 0.273461948458451 -0.840471658132179
6.426571102493483 3.364655273613327 60.018355422944872 0.465485149707571 0.290487459623717 -0.836026680915794
6.400440415957284 3.542153171087552 60.010430062616052 0.463139587093792 0.307978075459250 -0.831054286977095
6.320610612205421 3.598127345452067 60.040877994365772 0.460799166842537 0.326400311402721 -0.825304164871007
6.485150407443257 3.651804141188759 60.100330261886626 0.455531880275252 0.344864752953861 -0.820706408055259
6.394575788808488 3.375824233733038 59.983289489764644 0.453056673590566 0.366963643048449 -0.812451435592099
6.269800325407864 3.756212244810026 60.035065113569566 0.451444798636441 0.380194134129218 -0.807248421588941
6.247756550264519 4.943867009138380 60.662956808379114 0.447767472340870 0.381845701597516 -0.808516017704640
6.315585783639570 4.859196838249147 60.645260935994095 0.443318315699596 0.400595704902166 -0.801867789712999
6.267485638503842 4.661303092550007 60.388934990633409 0.440806936608851 0.420867098693055 -0.792817841546979
6.231042164563213 3.808121660266970 60.025759424116096 0.436812317549536 0.447993870561833 -0.780061850865706
6.388015397218815 3.586040825886137 59.989342783811601 0.430742044583252 0.466817422094938 -0.772361822889296
6.487766923942736 4.625639909537178 60.659353890419290 0.425513242455125 0.469200281802052 -0.773814949488701
6.427803191051282 4.995952402175959 60.826254540750732 0.422398518631636 0.479999969634990 -0.768881993941989
6.412637479909677 4.964219605321389 60.821237420950588 0.418464294906626 0.495268874636107 -0.761312272136069
5.466787176994174 -12.608939004798891 62.906358762206580 0.453953048162256 -0.403212214161944 -0.794573181283397
5.511852719151257 -12.080292542337304 62.695616591040547 0.456846089866982 -0.393132970060617 -0.797958719499053
5.660405533143212 -11.346269173947420 62.433589165517589 0.458456386646874 -0.385532651353759 -0.800738606714346
5.751021116840327 -10.779554188481910 62.210080172904711 0.460840492221270 -0.375652007386818 -0.804059456803731
5.793639654600852 -10.273719632406678 61.975423573341608 0.463887069759009 -0.364823894328427 -0.807287007598562
5.820341931769342 -9.737210584860943 61.779062616300145 0.466822879027032 -0.353949093731327 -0.810429786387251
6.005426042612577 -9.224618871140905 61.670967806049958 0.467708071837593 -0.342603132895483 -0.814783561977143
5.975228467169416 -8.597834203815893 61.378900337576667 0.471470679079582 -0.332613649982490 -0.816751834166024
6.053080115198647 -8.021676062592039 61.158366871921253 0.473839564197847 -0.321801017791288 -0.819707369949353
6.214483825895805 -7.750954480782902 61.161248027604991 0.474730421881886 -0.306458863067815 -0.825053932653514
6.279638362124906 -7.087758277016103 60.945853622506434 0.476939737106247 -0.296245644575477 -0.827506498608370
6.266164140859750 -6.767532272902940 60.864000278155807 0.479859154160047 -0.280980714558201 -0.831134784625916
6.457807854334447 -6.210071342140427 60.801903403867300 0.479995085093607 -0.268797948878720 -0.835076272543158
6.649738559471501 -5.642555463700447 60.722500022923690 0.480128628823436 -0.256612716346174 -0.838824423579551
6.642575016937407 -5.400037029428368 60.608505307310324 0.483030081743262 -0.239769528561507 -0.842135685803951
6.713448855967847 -4.711201941042258 60.464979681436937 0.484468665605811 -0.228774585378547 -0.844365028368062
6.853142021293543 -4.311732471855494 60.494339530425108 0.484547861151402 -0.213427535102293 -0.848328979531975
6.862313429361805 -3.964857510520645 60.369776721028451 0.486877189156282 -0.197376920218173 -0.850877755053255
6.797216143929845 -3.389048782888947 60.201243741492839 0.489866013532486 -0.184249132584728 -0.852105360813770
6.852821277798540 -3.156457191804453 60.224877337818164 0.490746040650497 -0.165989103936878 -0.855345509697744
6.893737252235333 -2.613996114794583 60.087505010475773 0.492262341288898 -0.152150247970410 -0.857046141926626
6.824880490301275 -2.218748184470401 60.034021590583230 0.494514078502770 -0.135850161812235 -0.858487367232707
6.837289402365613 -1.966889928707124 59.955128594824266 0.496039038565567 -0.117511265192895 -0.860311789278580
6.835714263907462 -1.430153448107008 59.946191233148880 0.496917288142770 -0.102969621271999 -0.861667259352435
6.820970050138627 -1.111144004268305 59.864704591178089 0.498418791610627 -0.085316414407432 -0.862728124962935
6.826491723510834 -0.678572595801561 59.829987614706106 0.499202515901388 -0.069152265110415 -0.863721490034735
6.988643777824556 -0.460950946141310 59.877214333707535 0.497723878845632 -0.049823558262599 -0.865903316467209
7.023348645631259 -0.125367344031615 59.885916314668236 0.497653804521186 -0.032108592502075 -0.866781246412914
7.024751094058132 0.176854419198168 59.920135755041748 0.497633505658443 -0.013867483271069 -0.867276534303687
7.023186292451207 0.417650866049707 59.925794327254707 0.497656154400764 0.005262688289916 -0.867358435768631
7.072515193994583 0.703786237015691 59.932739576353349 0.496942174062895 0.023736629946220 -0.867458960433541
6.943837375904423 0.993371915619475 59.879710732368395 0.498371838381715 0.042124050388728 -0.865939417677056
6.914144411826058 1.267374364139489 59.855385679658411 0.498368813584366 0.060704748386946 -0.864837244323919
6.907772851843824 1.542407124939906 59.886363876520733 0.497598112623052 0.079169809246504 -0.863787161063331
6.949888701752016 1.550121647107479 59.886968246112843 0.496131912141800 0.101420134670879 -0.862303358475347
6.866686246516672 1.915957417216285 59.895350519628650 0.496044287713390 0.118343998029351 -0.860194607491436
6.853862394828326 2.116015189447074 59.964463600870928 0.494523938817399 0.137437166316773 -0.858229048244897
6.924068911182005 2.308070850497858 59.979755140471298 0.492250979140871 0.156647810842286 -0.856242043404301
6.828095276279207 2.575029489959851 60.024596732913963 0.491516058617211 0.174395458564892 -0.853228098548884
6.739290882450405 2.627086852917072 59.997992537319256 0.490685903999287 0.195034156363523 -0.849228486020088
