ply
format ascii 1.0
element vertex 421
property double x
property double y
property double z
property double nx
property double ny
property double nz
end_header
16.202903831674824 17.620029728099247 92.520886208625654 -0.420970951320271 -0.459369175146667 -0.782153066266173
16.640092918999393 17.423753023787071 92.459294868649309 -0.427049587001610 -0.446994839953983 -0.786017978990473
16.788261880372545 16.788261880372602 92.689016920949129 -0.430946983836905 -0.430946983836905 -0.792823684209641
16.941492627865628 16.352640033016336 92.839921035165332 -0.434711764540780 -0.416205505660356 -0.798622976646584
16.955678685199715 15.189397364027108 93.461282566016024 -0.437089742198009 -0.394795913221160 -0.808139062395296
17.289729366950745 14.462067992924290 93.629925888989661 -0.442272745475452 -0.376951916496517 -0.813819434063361
17.051384820473821 13.708669906038594 94.066846651061468 -0.442508823245730 -0.358693052914273 -0.821903422027623
17.239383310703872 13.243589586424307 94.172939600875040 -0.446256986311157 -0.342593622916551 -0.826731099998903
17.337921737102185 12.783980583146445 94.284249180099764 -0.449251757405859 -0.326389085147274 -0.831650782218398
17.551575407894035 11.855509599670278 94.537009886367755 -0.453054525714359 -0.305711396932149 -0.837425900313294
17.520884151320402 11.022828748135204 94.825247930556458 -0.454716076428435 -0.285709267397342 -0.843565945472435
17.668482346710761 10.145722762248749 95.043258164377903 -0.457739372682478 -0.264996631505034 -0.848676293993909
17.639404431411627 9.113549820208803 95.339277443535536 -0.459201886093140 -0.242738189658589 -0.854524311584974
17.720892055297192 8.267517806812197 95.528408303248952 -0.461421113706476 -0.221866449121592 -0.858991172585639
17.594278069802577 7.813710754988765 95.746819030510082 -0.461527617616108 -0.204286906094931 -0.863283915161032
17.548285958851707 7.116098199210676 95.932332633078815 -0.462363583390758 -0.184407813029660 -0.867302528099438
17.658264447751705 6.490269992312349 95.968529768706077 -0.464618025997205 -0.165071344323383 -0.869989391430569
17.710124124676895 5.557210270291646 96.106215023448271 -0.466102245159234 -0.142758792316632 -0.873137231066124
17.634853352062599 4.399979573566956 96.346278030684999 -0.466180756684526 -0.118243057362517 -0.876752006831240
17.716481513895069 3.831591066083446 96.361522019753821 -0.467689650112980 -0.099014137873334 -0.878329432319331
17.736046668096520 2.947733720705143 96.459229085614055 -0.468380296268788 -0.076799741953692 -0.880182763807045
17.765847334158181 1.909823420911442 96.498942748797504 -0.469165957195197 -0.053129381756750 -0.881510393247442
17.827402768477789 1.112276833368298 96.511496861710242 -0.469985858408535 -0.031587851506885 -0.882108553712734
17.804491969679304 0.230392102392732 96.512277989295029 -0.470034220115952 -0.009251413830752 -0.882599707263786
17.804491969678956 -0.230392102392787 96.512277989295228 -0.470034220115948 0.009251413830753 -0.882599707263788
17.827402768477988 -1.112276833368373 96.511496861710143 -0.469985858408537 0.031587851506886 -0.882108553712733
17.604559919934495 -2.069879151189570 96.574840624826493 -0.467692609116055 0.054591478498123 -0.882203714486403
17.566906645250469 -3.031170138221748 96.541735375280268 -0.466836907064974 0.077561092601713 -0.880935627112695
17.544828274490712 -3.830818298233915 96.452814289414533 -0.466125041240459 0.099007094141226 -0.879161555823667
17.466084104131575 -4.315583198841404 96.447159406691995 -0.464644954992552 0.117475049584506 -0.877670028270925
17.549534987314651 -5.397722458339430 96.217686739349205 -0.464643272347730 0.141309825187058 -0.874149965834007
17.658264447751705 -6.490269992312513 95.968529768706048 -0.464618025997205 0.165071344323384 -0.869989391430569
17.548285958851885 -7.116098199210487 95.932332633078744 -0.462363583390759 0.184407813029658 -0.867302528099437
17.430067925686586 -7.976962128769031 95.795684674322558 -0.460047046485318 0.205758832646011 -0.863724503420093
17.548504160183185 -8.351901170599966 95.598995235457068 -0.459871002249646 0.222625224085963 -0.859625890076945
17.299094198245328 -9.276170435845337 95.475115186406470 -0.456151691299142 0.244195755452589 -0.855741822948879
17.322960188521478 -10.143843395847099 95.229394388108247 -0.454654077940187 0.264979849949523 -0.850338372962838
17.181774947647625 -10.858777872023612 95.062559027612792 -0.451699359021863 0.284249869869439 -0.845677066342966
17.378505294713378 -11.767649129781418 94.662434253896080 -0.451521439407506 0.304933113028447 -0.838536932003686
17.174484277933999 -12.621093663497234 94.436058828976385 -0.447810128587228 0.324952312459180 -0.832989845893767
17.239383310703957 -13.243589586424363 94.172939600874969 -0.446256986311158 0.342593622916551 -0.826731099998902
17.051384820473736 -13.708669906038018 94.066846651061766 -0.442508823245729 0.358693052914268 -0.821903422027626
17.289729366949786 -14.462067992923615 93.629925888990499 -0.442272745475444 0.376951916496511 -0.813819434063368
16.955678685199267 -15.189397364027059 93.461282566016308 -0.437089742198005 0.394795913221159 -0.808139062395299
16.941492627865678 -16.352640033015831 92.839921035165588 -0.434711764540780 0.416205505660351 -0.798622976646586
16.788261880372602 -16.788261880372275 92.689016920949271 -0.430946983836905 0.430946983836903 -0.792823684209642
16.640092918999478 -17.423753023786404 92.459294868649650 -0.427049587001611 0.446994839953978 -0.786017978990475
16.371476934849802 -17.788796731728077 92.330534205307387 -0.422396034617041 0.460795897639091 -0.780543868503740
16.147454695086346 -18.229697803352877 92.249608312709086 -0.417747582893141 0.474602736233752 -0.774751056628110
15.806370774600609 -18.570701053834853 92.179303943640207 -0.412389354492033 0.487640462925410 -0.769507504329578
15.659484301832535 -19.141850493157868 91.897613339407471 -0.408503228844924 0.502182138949638 -0.762193027613896
15.514069080694632 -19.758348425470366 91.539913307032990 -0.404679184842972 0.516910576229669 -0.754346215962365
15.131102875095095 -20.142720944766950 91.507170727412287 -0.398763015591252 0.529290211512947 -0.748892468511435
14.373509975870007 20.361621296631029 91.758605081271696 -0.381649477554651 -0.533702371055441 -0.754655852300943
14.616332605599609 19.908044026672925 91.929724844476226 -0.386315383897305 -0.520718791111163 -0.761322773039141
14.949661860741628 19.395835148885908 92.134148187742269 -0.391605500214567 -0.506810745593781 -0.767976562371779
15.288931123884353 18.918567489906422 92.271591519915901 -0.397014691869153 -0.493013822383643 -0.774155478814631
15.711477083956609 18.555348551395539 92.255954689626066 -0.403198438340990 -0.479998298719665 -0.779123002192603
16.056629232223145 18.060226342999755 92.399976849348818 -0.408597835264025 -0.465451409151158 -0.785113236888001
16.389443245336018 17.755743784326853 92.399882464256564 -0.413958222153852 -0.452355251639966 -0.789945135199252
16.536273555102227 16.944647161118198 92.742269586794521 -0.417785148861094 -0.434738900310694 -0.797782964187480
16.620611428496446 16.352175489806896 93.021979216821052 -0.420900263245060 -0.418577952156821 -0.804758017275033
16.685850887515599 15.249057315174774 93.517009551247824 -0.423884981184335 -0.397788282564820 -0.813686674943425
16.790586953877764 14.467348549690854 93.842996996575238 -0.427025600926072 -0.379371980667286 -0.820808160557817
16.742753579148115 13.735839420084950 94.242920200609717 -0.428631721409158 -0.361012298269487 -0.828217947100885
16.745967023163416 13.173170175922088 94.420931727201946 -0.430932211530731 -0.344150721582490 -0.834180861623836
16.705860587969575 12.744113343757675 94.667760536344773 -0.432411592475997 -0.327946618257099 -0.839923347851520
16.560461351514796 11.893218551349584 95.012045082454549 -0.433197034425558 -0.308009882779260 -0.847036151220955
16.549453027583787 11.099372141381544 95.349780703134300 -0.434726649016410 -0.288081629900506 -0.853241885486660
16.593107900533624 10.277840484789923 95.541105516057428 -0.436994319228306 -0.267898719194661 -0.858642091453738
16.610819853374117 9.202283381188202 95.899489494875979 -0.438572444805465 -0.244982719152360 -0.864660440851826
16.709467507738218 8.377097021285135 96.080334445990658 -0.440892967053263 -0.224182243521349 -0.869112025743923
16.718147741815812 7.827845915795738 96.183839902767005 -0.442412176620527 -0.205750030999145 -0.872890824056330
16.751401017437722 6.995273710218676 96.358329406127766 -0.443922568181251 -0.184516550279540 -0.876861674457437
16.868333960648165 6.540919218206970 96.360693586737881 -0.446204799348920 -0.166618023708431 -0.879283635247175
17.016740884131430 5.703793366671615 96.437420717465557 -0.448541297522921 -0.145039262612452 -0.881915141449159
17.109999371994427 4.568202434124832 96.591870870592899 -0.450135104625762 -0.120563821875285 -0.884784014569872
17.278265895620265 3.919208259175090 96.578875568385214 -0.452422386417288 -0.100472137436234 -0.886126025950869
17.310351298452673 2.892437854313822 96.685954610633118 -0.453215773844518 -0.076799741474362 -0.888086292005448
17.171348842302386 1.871846282391192 96.810538530238958 -0.452437690503930 -0.053131919838080 -0.890211848553921
17.055153832562048 1.089653491078073 96.913635775643513 -0.451618399416341 -0.031588954743565 -0.891651815030302
17.022333245839327 0.223657958915545 96.918589706710122 -0.451565711551499 -0.009250740669387 -0.892189908006169
17.022333245839683 -0.223657958915199 96.918589706709952 -0.451565711551502 0.009250740669384 -0.892189908006167
17.055153832562269 -1.089653491077884 96.913635775643414 -0.451618399416343 0.031588954743563 -0.891651815030301
17.086596818866937 -2.040826600351944 96.843336909608126 -0.451658361552799 0.054685761842317 -0.890513442846971
17.221277913497509 -2.980810934261987 96.723680214042417 -0.452397611036075 0.077611471794452 -0.888432811739161
17.187488696179678 -3.918792037992310 96.625216380215079 -0.451589491661434 0.100468318542915 -0.886551210021241
17.020328210265326 -4.479192190986121 96.649520213777365 -0.449313714484431 0.119748485765193 -0.885312084032036
16.930861922456238 -5.534646389697951 96.508703579421450 -0.447755938934213 0.143492422402359 -0.882567019473447
16.868333960648428 -6.540919218206842 96.360693586737767 -0.446204799348923 0.166618023708430 -0.879283635247174
16.751401017438518 -6.995273710218740 96.358329406127339 -0.443922568181259 0.184516550279541 -0.876861674457433
16.633009070766001 -7.999468128303199 96.186347132200240 -0.441639523284926 0.207307542683576 -0.872913577749344
16.619230180813481 -8.466748650721957 96.102899104540327 -0.440076709007811 0.224993203534346 -0.869316138439985
16.432875330952683 -9.374131178027053 95.940729123714732 -0.436968040131212 0.246532153800623 -0.865032270523079
16.410675645326045 -10.276850714226672 95.634041384766448 -0.435354773481855 0.267889823979749 -0.859477319895448
16.368423955907048 -10.926275142955731 95.500010737205557 -0.433106702066282 0.286532663471640 -0.854586225836291
16.467986375280731 -11.801054309124900 95.092729221339582 -0.432372616343770 0.307188234903494 -0.847755453520010
16.617322582610541 -12.570889852299629 94.780709457212652 -0.431626054321804 0.326409722760178 -0.840925467635637
16.745967023163011 -13.173170175921939 94.420931727202216 -0.430932211530727 0.344150721582489 -0.834180861623838
16.742753579147788 -13.735839420084950 94.242920200609873 -0.428631721409155 0.361012298269487 -0.828217947100887
16.790586953878510 -14.467348549690485 93.842996996575025 -0.427025600926078 0.379371980667283 -0.820808160557815
16.515395894050506 -15.419406588059928 93.522217453326888 -0.422401861081097 0.399270482798746 -0.813731988630705
16.440126528758746 -16.440126528758576 93.070400315108827 -0.419338840113840 0.419338840113838 -0.805176921144639
16.352640033016158 -16.941492627865898 92.839921035165304 -0.416205505660354 0.434711764540782 -0.798622976646583
16.209979406011229 -17.663564060868595 92.546377173673662 -0.412423949782091 0.451567188688284 -0.791197547864185
15.888458865439333 -17.891788061773575 92.586860487085943 -0.407168908704557 0.464020206149831 -0.786701168213833
15.711477083956517 -18.555348551395653 92.255954689626037 -0.403198438340989 0.479998298719666 -0.779123002192602
15.288931123884701 -18.918567489906515 92.271591519915660 -0.397014691869156 0.493013822383644 -0.774155478814629
14.949661860741145 -19.395835148886086 92.134148187742412 -0.391605500214563 0.506810745593782 -0.767976562371780
14.787976335803265 -20.080366948043569 91.724213800875688 -0.387736864064623 0.522145896050050 -0.759620818226714
14.560393110304325 -20.458192548537639 91.595410635644640 -0.383186471834068 0.534496607850462 -0.753313682339375
13.668398295143604 20.512745872788884 91.977012569843353 -0.364799969378821 -0.537598114495321 -0.760203426480233
14.085141300917087 20.228060653749658 91.962690223482340 -0.370818903877795 -0.525982610518100 -0.765399003108467
14.444023264156087 19.827939262118029 92.100020429604754 -0.376248414711871 -0.512978045255240 -0.771550812009758
14.702143660451490 19.332709299053370 92.233930474330691 -0.381092496924420 -0.499253010200400 -0.778148405250407
15.149584668107991 18.734044576500217 92.452257011191463 -0.387219545608251 -0.483959719688483 -0.784757295740527
15.291530730696692 18.116611205498600 92.709766308142164 -0.391013250710900 -0.468558157784317 -0.792188039888423
15.279022827681338 17.732453715592300 92.940531527375910 -0.393326221543129 -0.454721895929776 -0.799076016914933
15.286196837924699 16.957313292454195 93.413046946671059 -0.395632916886508 -0.437103876285812 -0.807721979651285
15.513012608402477 16.421839692133375 93.524758789908660 -0.400084943951992 -0.421587833395401 -0.813754100669178
15.716050280536109 15.450689795100494 93.966580080106851 -0.403960467773429 -0.401639462915250 -0.821889093677135
15.808867696485436 14.742106505003512 94.202292831703701 -0.407122527460943 -0.383991875648839 -0.828734871397059
16.016742969859649 13.918245746708038 94.524830337577313 -0.410903323343584 -0.364730803029329 -0.835541680699879
15.941459328342738 13.110119940151705 94.850169816809895 -0.412425213972654 -0.345608903760346 -0.842887850500399
15.829583817065298 12.529999675447428 95.190315594890691 -0.413193519117049 -0.327967422360084 -0.849534275724147
15.682943473247377 11.854125389145644 95.464837925026984 -0.413879414162383 -0.309482336912794 -0.856110106044543
15.738914354470985 11.303606664596686 95.618638016086948 -0.416172785323525 -0.291789216109130 -0.861196415528118
15.824955866077737 10.446860532578825 95.878974682051989 -0.418530927276718 -0.271025318981817 -0.866820130928957
16.073627569850444 9.360269590106178 96.066476350437000 -0.422382952807428 -0.248017239224124 -0.871825722392568
16.260466280289052 8.393000217110636 96.249708750204050 -0.425468599474543 -0.225796687763914 -0.876351714014423
16.388015151704714 7.783565823226606 96.380854105750430 -0.427798458428784 -0.206585554854621 -0.879949366436140
16.396918331916531 7.178614049554604 96.452537524300212 -0.429290723934382 -0.187412879449983 -0.883507717544199
16.455384322305250 6.526153213049071 96.597070477570512 -0.430773288555084 -0.167491996814918 -0.886781148238048
16.441066939635157 5.625034554825206 96.767433739298639 -0.431592758668094 -0.145195368063531 -0.890306686349238
16.428541907024709 4.417906051763127 96.916166445944057 -0.432432382729596 -0.119978386830458 -0.893648376633878
16.438558450301045 3.702310568252127 96.989112747132495 -0.433243820544020 -0.099136977632328 -0.895807820699478
16.469919978667093 2.837142049553666 97.078297872876490 -0.434014516677458 -0.076799741558517 -0.897626425084387
16.332972989799522 1.977897046068487 97.187738108911219 -0.433228945568819 -0.054467713098847 -0.899636564925588
16.218564296032682 1.286666523085818 97.286359062781088 -0.432410061091346 -0.033624307891876 -0.901049912594064
16.213338527320509 0.293138745338345 97.350650740255986 -0.432361660899514 -0.009950808051666 -0.901645371309215
16.213338527320204 -0.293138745338533 97.350650740256114 -0.432361660899511 0.009950808051667 -0.901645371309217
16.218564296032632 -1.286666523085454 97.286359062781116 -0.432410061091346 0.033624307891872 -0.901049912594064
16.333398745801659 -2.148940279045267 97.177026315176022 -0.433232886659277 0.056051006933678 -0.899537409193521
16.470118293173606 -2.926895881398904 97.070480958890116 -0.434016350376085 0.077629642916310 -0.897554146637911
16.464429559562291 -3.708228468383465 97.042924310106258 -0.433242680324585 0.099136697760394 -0.895808403121077
16.267849624194881 -4.487078515779324 96.984455872621581 -0.430950665045596 0.120616214991050 -0.894278062449254
16.272031095115906 -5.535751364009531 96.863701022676068 -0.430037548027564 0.144373919992727 -0.891192391412973
16.284699355992899 -6.525008075112808 96.680014297751129 -0.429206365151867 0.167481484211079 -0.887542589715883
16.229265629563301 -7.094307174073819 96.551648904133756 -0.427755020880858 0.186640626308270 -0.884415580325490
16.230035235963065 -7.798177251144057 96.454069317158925 -0.426356114634923 0.206718956004237 -0.880617815367104
16.261237668678824 -8.484371141178205 96.225745680100900 -0.425475622950731 0.226628618238898 -0.876133530730228
16.100676839600631 -9.549518278925206 96.068183571670517 -0.422398429384133 0.249598805251022 -0.871366744414245
15.824831300238898 -10.446848401132748 95.879038619763890 -0.418529801105134 0.271025209304156 -0.866820708975354
15.761809048772584 -11.145554466842512 95.730615570632267 -0.416154100718090 0.290208879888761 -0.861739270597104
15.681751722570652 -11.761165430123469 95.498967564394675 -0.413868726774017 0.308648690073746 -0.856416174014839
15.827340021591418 -12.353116925415115 95.259503978880929 -0.413173494168598 0.326388816826552 -0.850151753492913
15.941459328342773 -13.110119940151712 94.850169816809867 -0.412425213972654 0.345608903760346 -0.842887850500399
16.016742969859912 -13.918245746708379 94.524830337577029 -0.410903323343586 0.364730803029332 -0.835541680699877
15.808867696485748 -14.742106505003974 94.202292831703332 -0.407122527460946 0.383991875648843 -0.828734871397056
15.628980237489692 -15.628980237489401 93.922028480560854 -0.403198900004283 0.403198900004281 -0.821499418180363
15.419406588059772 -16.515395894050236 93.522217453327102 -0.399270482798745 0.422401861081095 -0.813731988630707
15.189397364026760 -16.955678685199530 93.461282566016308 -0.394795913221157 0.437089742198007 -0.808139062395299
15.182913748621274 -17.636134999649144 93.042494501338680 -0.392499903263875 0.453893775252765 -0.799952665302542
15.199976118910030 -17.937609483245723 92.860490644375787 -0.390230933255661 0.467028620723282 -0.793475951844619
15.149584668107750 -18.734044576499983 92.452257011191733 -0.387219545608248 0.483959719688481 -0.784757295740529
14.702143660451391 -19.332709299053128 92.233930474330876 -0.381092496924419 0.499253010200398 -0.778148405250408
14.444023264155902 -19.827939262118413 92.100020429604584 -0.376248414711870 0.512978045255243 -0.771550812009756
14.085141300916710 -20.228060653750191 91.962690223482170 -0.370818903877792 0.525982610518104 -0.765399003108466
13.668398295144179 -20.512745872789537 91.977012569842614 -0.364799969378826 0.537598114495326 -0.760203426480227
13.544360003219722 20.688149860879577 91.937903457394782 -0.352433457893065 -0.541464506939639 -0.763286869716852
13.716924613603361 20.420402035134948 92.041471577353775 -0.356351263386033 -0.529965320919112 -0.769513180982809
14.141573237282309 20.166802066945458 91.988896469589861 -0.362446941460658 -0.518422598862890 -0.774512894414329
14.329170682945467 19.617367976200171 92.286044163725734 -0.366432923832066 -0.503950487127724 -0.782151404048866
14.490828501941834 18.889579860805398 92.662688772359388 -0.370250648425406 -0.487764097438831 -0.790569821451748
14.468000899853763 18.183488784446126 93.061073684608843 -0.372535007299268 -0.471547185299718 -0.799287758177522
14.536220392250470 17.716331395771775 93.306194878828549 -0.375442661760008 -0.456940466647410 -0.806379698200921
14.439504760579815 17.263287470788221 93.581020425781404 -0.376952385082006 -0.442273567012681 -0.813818770552060
14.465933558806135 16.694935437868779 93.893351447350369 -0.379359604292890 -0.426188974353790 -0.821248591335173
14.739439898814567 15.629596610138549 94.291383981083030 -0.383968416458297 -0.405545408728236 -0.829518641515642
14.858292758103474 14.858292758103509 94.626394279546886 -0.387057068701720 -0.387057068701720 -0.836883296007313
15.142644175763202 13.944902526526100 94.891743552514640 -0.391650166051064 -0.367108140184281 -0.843707153485504
15.113306841582023 13.155901173361642 95.260179371936474 -0.393277555986617 -0.347870554573051 -0.851069234092169
15.228891538797029 12.473932367039630 95.464487858375335 -0.396221757238505 -0.329407328907798 -0.857029247314618
15.045505683061123 11.678846816946965 95.866429989581761 -0.396283073510604 -0.309576204282274 -0.864362365788313
15.097486940909853 11.138598439550186 96.018392765691672 -0.398476292139001 -0.291880362578558 -0.869495542567162
15.104264206320565 10.471926566573035 96.255307049587117 -0.400059214674307 -0.272731356845496 -0.874968703295947
15.439941501168740 9.634180589442071 96.340342651539871 -0.404655456712918 -0.251874537726454 -0.879097934588374
15.538759851686947 8.743929589353851 96.489369704163266 -0.407117430170257 -0.230376290092094 -0.883845101256419
15.828714572577510 8.050680388634010 96.577973171268326 -0.410902586319257 -0.210291452086286 -0.887094453671979
15.952982667607579 7.224029493539376 96.719324115531762 -0.413182579604012 -0.188866901478672 -0.890847601690446
15.833708122442999 6.418124763752516 96.911211018158284 -0.413225806986635 -0.167515237496560 -0.895088307177965
15.650724047763397 5.533632427829474 97.154436610521444 -0.412450005070475 -0.145236345717203 -0.899328303346491
15.704012645267213 4.495019979747367 97.248612674616297 -0.413862720523863 -0.121428425454563 -0.902204403698082
15.548789609486029 3.718755895129595 97.406873097198357 -0.413112532380690 -0.099897833799178 -0.905184212407754
15.574760437746789 2.943495155437260 97.492430177331627 -0.413815335731201 -0.078260723373684 -0.906990698458756
15.613812192177598 1.941955661902164 97.529890048849808 -0.414641540394688 -0.054467781148386 -0.908353264867745
15.671981350841989 1.107504710214431 97.551556781816828 -0.415415444514416 -0.032161538628408 -0.909063058259406
15.517062800517387 0.204556063267683 97.678214389048975 -0.413971790145535 -0.009186525610546 -0.910243354664514
15.509524303947792 -0.443371269386617 97.678940390072498 -0.413901540433769 0.011411995800826 -0.910250120119956
15.346148520130974 -1.264348214147760 97.694129570269340 -0.412379074831152 0.033623131247300 -0.910391664991793
15.367120267711847 -2.107991762246820 97.632036141644278 -0.412343953317611 0.056014173067401 -0.909304611545537
15.337248857254494 -2.874045450633693 97.606406925657311 -0.411605720134473 0.077614619505384 -0.908051045917363
15.472841217698104 -3.636430313849461 97.450546224291330 -0.412406757900735 0.099132797266513 -0.905590058770480
15.391572625435423 -4.576613293793093 97.380329334804415 -0.410964121211944 0.122185390980546 -0.903426378465576
15.479258300320623 -5.535535421004020 97.232584164071952 -0.410862800151075 0.145253961131204 -0.900051690864315
15.413823520896358 -6.575746982153511 97.074380571149248 -0.409347681914624 0.168971062918200 -0.896595368718475
15.528884669385974 -7.134183122963712 96.933863006254569 -0.409276362433324 0.188039358229379 -0.892823643789763
15.499680202204480 -7.891695441526508 96.767193735544041 -0.407880317830481 0.208831132924832 -0.888832495044953
15.460851705220286 -8.748783717157906 96.523952804302880 -0.406403789550428 0.230420754027278 -0.884161883340688
15.458047941287944 -9.645434663456896 96.328780608648515 -0.404820676533333 0.251977230253279 -0.878992431870139
15.284363055608402 -10.472846759837051 96.172470049364051 -0.401696328112066 0.272739721478384 -0.874215708111663
15.274293485222934 -10.967493070038117 95.994485102813371 -0.400077365618246 0.290330916146320 -0.869279046480244
15.135761524212988 -11.588694884430559 95.857253615797916 -0.397096849014633 0.308763365651705 -0.864279628670074
15.314216003595192 -12.300359489878616 95.491555273181817 -0.396987754767889 0.327849084207547 -0.857272244125880
15.113306841582130 -13.155901173361194 95.260179371936601 -0.393277555986618 0.347870554573047 -0.851069234092170
15.142644175763365 -13.944902526525794 94.891743552514697 -0.391650166051066 0.367108140184278 -0.843707153485505
14.858292758103659 -14.858292758103488 94.626394279546787 -0.387057068701722 0.387057068701720 -0.836883296007312
14.742106505003861 -15.808867696485599 94.202292831703446 -0.383991875648842 0.407122527460945 -0.828734871397057
14.467348549690968 -16.790586953878041 93.842996996575053 -0.379371980667287 0.427025600926074 -0.820808160557816
14.462067992923473 -17.289729366950169 93.629925888990371 -0.376951916496510 0.442272745475447 -0.813819434063367
14.363344041807011 -17.791077715122363 93.344131145373353 -0.373948613272898 0.457586446418826 -0.806707554622533
14.282926253996578 -18.089303353862064 93.202560276321961 -0.370945428618024 0.470738240606906 -0.800502965527115
14.305291444216437 -18.886455276404874 92.751281713218788 -0.368667702791711 0.487737439436950 -0.791325669424271
14.148011099366457 -19.524074578429733 92.430688118245541 -0.364897543006750 0.503159798105176 -0.783377304163451
13.972217595728502 -19.996601647131868 92.181558493238626 -0.361021028843382 0.516989573521360 -0.776135038252409
13.716924613603460 -20.420402035135027 92.041471577353661 -0.356351263386034 0.529965320919112 -0.769513180982808
13.544360003219822 -20.688149860879349 91.937903457394910 -0.352433457893066 0.541464506939638 -0.763286869716853
12.900997342522047 21.030348561017377 91.980678435531061 -0.335624612980753 -0.546756722216807 -0.767080964352690
12.996362908510847 20.769663952963079 92.129011594010478 -0.338793255299495 -0.535302040421291 -0.773738234601583
13.428317125764494 20.440414700360385 92.146413428485374 -0.344853819891436 -0.523104666331391 -0.779382672997423
13.505223988463591 19.935700623267707 92.402330637652881 -0.347976607789962 -0.509238015361340 -0.787139710687903
13.586299213220215 19.031252348529243 92.940304744245381 -0.350999478717265 -0.491488743234107 -0.797018306699643
13.683253447651211 18.195788277717291 93.443408402366941 -0.354016769761422 -0.473850533072028 -0.806311229634713
13.687473750893425 17.641355279190385 93.770893428008506 -0.356266595041186 -0.458431929141186 -0.814195479968816
13.612969712212994 17.050010155793252 94.109293737110306 -0.357856878219423 -0.442496812195660 -0.822274300892183
13.641893617170155 16.648649647700111 94.332436031177338 -0.360186691424292 -0.427804724911680 -0.829004622824302
13.829620209674630 15.843028874838694 94.648664137562562 -0.363947407492925 -0.409367797002022 -0.836636295744388
13.944902526526050 15.142644175763202 94.891743552514669 -0.367108140184281 -0.391650166051064 -0.843707153485504
14.318651845514630 14.318651845514410 95.096716267838261 -0.372418001658305 -0.372418001658304 -0.850064505835687
14.391991562483625 13.209882816095146 95.562483946092584 -0.374883154248483 -0.350230241768572 -0.858371363927895
14.443887139752114 12.441251710902932 95.834554085846307 -0.377178780934670 -0.330896305721662 -0.865010868181662
14.508796881880841 11.650200094127861 96.123503376848916 -0.379408456911258 -0.311000363467753 -0.871394283173320
14.486588569004823 11.204627384545226 96.279107253484270 -0.380864413812299 -0.294076093822683 -0.876619386811292
14.319091434321713 10.708942685565749 96.473627950639553 -0.381004494141031 -0.276544971975910 -0.882246254692634
14.572935388292485 9.737593177294325 96.649340058796597 -0.384803868431952 -0.254349978677080 -0.887260993838213
14.689409409317939 8.781464671693964 96.882596165091485 -0.387152614988652 -0.231995161386147 -0.892351442986935
14.801395905131947 7.931694830689700 97.028191209562124 -0.389475518945864 -0.210474492474722 -0.896665661302672
14.935411768012194 7.112978012455457 97.165405592578239 -0.391800220257735 -0.188992938675336 -0.900430039779244
14.977045417581046 6.456770353640355 97.254885918896932 -0.393279392413168 -0.168901778214296 -0.903771823426233
14.802723739952704 5.667535016290371 97.476148257128528 -0.392534914221409 -0.147376222560216 -0.907852735933022
14.883564217926086 4.651311686400618 97.627446831636334 -0.393948262131972 -0.123566206608831 -0.910788756708987
14.729908340869372 3.807284663113981 97.793013759533295 -0.393175014866549 -0.101285250566433 -0.913867991398311
14.685261362259595 2.906006845060841 97.922917397804085 -0.393198721697629 -0.078349301572278 -0.916109246868782
14.880828446909852 1.921721312067162 97.892556537085483 -0.395472309140300 -0.054584352459185 -0.916854514724038
15.106016399539115 1.098258861060491 97.842700328767194 -0.397804951734037 -0.032255729182462 -0.916902823810020
15.013105324380227 0.200238908697744 97.873162749303361 -0.397157574537086 -0.009202896471615 -0.917704292070355
15.009138083659145 -0.452051884819478 97.872030414383161 -0.397120375843030 0.011564012047065 -0.917693674771525
14.934457004115067 -1.263644707918453 97.911000484820278 -0.396197235536642 0.033805591865040 -0.917542877751104
14.862758533609245 -2.077121752541119 97.890974047014481 -0.395303067655795 0.056039821602895 -0.916839693237936
14.677482375703427 -2.822539526801593 97.933358196325955 -0.393125946072630 0.077568430412589 -0.916206924841669
14.809884340997961 -3.720861768106481 97.768109853732895 -0.393922384272479 0.100477635436936 -0.913635266365133
14.883186570279896 -4.739744761012034 97.615571736007482 -0.393944738970799 0.124391218966434 -0.910677971228729
14.874176642649651 -5.685875245545200 97.442242573230587 -0.393200397156092 0.147547035908962 -0.907536952344515
14.827858505628988 -6.633640195337755 97.352833087517453 -0.391674640156301 0.170450359388295 -0.904177886946387
14.758329236654497 -7.022818536612288 97.261132138234004 -0.390159199672454 0.188157432458644 -0.901317135930257
14.782797712030487 -7.749950299753021 97.078745277382723 -0.389303647648373 0.208794938543139 -0.897132846108333
14.767141695448615 -8.776936627681728 96.850011935412510 -0.387868579676233 0.231953455168847 -0.892051321133025
14.816789640279801 -9.728953209833932 96.545694021744694 -0.387042501058293 0.254270661983236 -0.886309501714355
14.656722246709229 -10.710623239898876 96.326589963494996 -0.384092110166522 0.276560340556917 -0.880901600031961
14.821940617348737 -11.044223682488891 96.186454775845036 -0.383917787647717 0.292615621255476 -0.875775787816125
14.680208371875374 -11.566073966653640 96.078694647045936 -0.380962363991255 0.310237729731245 -0.870988075850294
14.607980274280862 -12.277376958427134 95.825409699246038 -0.378659899578309 0.329417158213080 -0.864928330167398
14.391991562483483 -13.209882816095146 95.562483946092669 -0.374883154248482 0.350230241768572 -0.858371363927896
14.318651845514438 -14.318651845514708 95.096716267838218 -0.372418001658304 0.372418001658306 -0.850064505835686
13.944902526525794 -15.142644175763273 94.891743552514740 -0.367108140184278 0.391650166051065 -0.843707153485505
13.918245746707981 -16.016742969860182 94.524830337577086 -0.364730803029329 0.410903323343589 -0.835541680699877
13.735839420085128 -16.742753579148221 94.242920200609589 -0.361012298269489 0.428631721409159 -0.828217947100884
13.708669906038622 -17.051384820473331 94.066846651061738 -0.358693052914274 0.442508823245726 -0.821903422027625
13.693752968439505 -17.726625295047825 93.720081896270983 -0.356321116336194 0.459172313059372 -0.813754292752201
13.676666028276294 -18.109932135108558 93.496701461572215 -0.353959927761466 0.473109691389322 -0.806771088632084
13.488595630325669 -19.029577337798216 92.984303622615272 -0.350161612471706 0.491474379022367 -0.797395623210833
13.408262855376492 -19.838251727740747 92.508076501488134 -0.347150633404689 0.508407885916524 -0.788040518796219
13.336182155950894 -20.259697744738872 92.308108574113717 -0.344074534009565 0.521576146026718 -0.780750305118106
12.996362908510577 -20.769663952962325 92.129011594011118 -0.338793255299493 0.535302040421284 -0.773738234601588
12.900997342522246 -21.030348561017817 91.980678435530663 -0.335624612980754 0.546756722216811 -0.767080964352687
12.632595277892946 21.198567000292272 91.941092815314036 -0.321804852792938 -0.550639331492773 -0.770219425444534
12.817725667766091 20.937098158070441 92.062601248263917 -0.325647310113609 -0.539153363351645 -0.776702954933468
12.989169804137305 20.608161851448173 92.206308737146188 -0.329428326995814 -0.526930171224812 -0.783467658570364
13.004494942663442 20.136380996338680 92.552676757102546 -0.331757291443533 -0.513045342539891 -0.791657486588851
12.998646226612934 19.036213744561813 93.183007563310454 -0.334107833433384 -0.493818073098663 -0.802817330604898
13.020815617005198 18.280073576625512 93.675779201674345 -0.336385484326010 -0.476799510850676 -0.812100383196137
13.039036321004623 17.654002228755076 94.043072735265781 -0.338657300191962 -0.460701842700472 -0.820405415120525
13.063494085873771 17.236776679716748 94.248774604052954 -0.341012589639836 -0.446234103061336 -0.827396844913115
12.999170651630678 16.656905846705079 94.538450137124286 -0.342613487513302 -0.430145382513518 -0.835219101838716
12.948329762280466 15.779365681238666 94.995433297458689 -0.344171152246338 -0.410984765673497 -0.844178737203045
13.155901173361613 15.113306841582123 95.260179371936445 -0.347870554573051 -0.393277555986618 -0.851069234092169
13.209882816094812 14.391991562483732 95.562483946092684 -0.350230241768569 -0.374883154248484 -0.858371363927896
13.424441982810656 13.424441982810578 95.848632396596884 -0.354065673104043 -0.354065673104042 -0.865606722627986
13.662629917854524 12.500686834054918 96.112951237675148 -0.357962427787045 -0.333237470133904 -0.872247492854843
13.909634956305503 11.631955417906710 96.359933170404162 -0.361780010539655 -0.312534914027041 -0.878314950053816
13.906495128257262 11.042137227838140 96.557550397232845 -0.363341070477499 -0.294203856338352 -0.883983799297197
13.913356100783290 10.721124792551443 96.688924732435908 -0.364806599584443 -0.278029361203487 -0.888603296870103
13.918916122001342 10.006092087652661 96.900449534851987 -0.366271483734674 -0.258094308401630 -0.893998058260467
13.931019001785188 8.970274482036888 97.141590454050288 -0.367808363450821 -0.235033106252078 -0.899709090062520
13.968212310733598 8.128519571868384 97.325059346115893 -0.369384465298147 -0.213477089228402 -0.904423932219272
14.023543875897943 7.166358936981176 97.534146703898358 -0.370932754411499 -0.190547096607783 -0.908900817294738
14.149934209052944 6.437228945846126 97.606357662708987 -0.373153763284300 -0.169666189569630 -0.912123704912709
14.146979113776894 5.733824787098257 97.739832939790531 -0.373964869474355 -0.148825276642299 -0.915424116697486
14.169039229930668 4.581169233336867 97.937857816270096 -0.374803351439447 -0.123603707977642 -0.918827824526410
14.188874784264513 3.748825342754440 98.026869787496835 -0.375623764535894 -0.101306976249924 -0.921218586481504
14.205140328176284 2.857489714230569 98.064138301133823 -0.376413351484291 -0.078379362837528 -0.923130361490481
14.338510358791069 2.053494279222568 98.117048349812535 -0.377882267672516 -0.056133976445536 -0.924150403596237
14.456411886278623 1.324338002801913 98.051405886551279 -0.379421611374622 -0.034588288569561 -0.924577141787376
14.466471338733257 0.279088529673243 98.110137647656799 -0.379516467126198 -0.009998477413232 -0.925130953773284
14.466466657015751 -0.534427789504645 98.107047635991876 -0.379516422979875 0.012406202635593 -0.925101816463855
14.479325441574375 -1.494086221007824 98.100403558058915 -0.379423008590843 0.036168468768333 -0.924516101762877
14.338399611961123 -2.053521758483037 98.117091964653426 -0.377881224564012 0.056134235268749 -0.924150814398167
14.227214268665698 -2.694294516278829 98.133845288402668 -0.376408545193957 0.076799741427028 -0.923265079390372
14.188485040820282 -3.660680106458445 98.036681968359332 -0.375620101877834 0.100478621430866 -0.921310797559997
14.252535100362586 -4.746046071689630 97.881428224682750 -0.375586688248078 0.125150540122804 -0.918298416593327
14.234850917105106 -5.909458919556574 97.675163497708780 -0.374787870348460 0.150470253063188 -0.914818427439438
14.262176518440974 -6.616933225157364 97.592579704242354 -0.373992962720099 0.171249493090103 -0.911483886282267
14.110776980152380 -7.079241085062918 97.516730288652880 -0.371745661915501 0.189735263116792 -0.908738517273813
14.072110320734794 -7.803901663820778 97.424958020313852 -0.370143589864724 0.210343193682742 -0.904847757224054
13.930197976179393 -8.880609774364402 97.165305137105548 -0.367800759249601 0.234202646794150 -0.899928731472683
13.917386198086398 -9.835049097081246 96.950292107765875 -0.366257368743301 0.256516275459740 -0.894457903014723
13.913356100783211 -10.721124792551194 96.688924732436021 -0.364806599584443 0.278029361203485 -0.888603296870104
13.906495128257752 -11.042137227838346 96.557550397232575 -0.363341070477504 0.294203856338353 -0.883983799297195
13.909634956306199 -11.631955417906759 96.359933170403849 -0.361780010539661 0.312534914027042 -0.878314950053813
13.662629917854105 -12.500686834054811 96.112951237675361 -0.357962427787042 0.333237470133903 -0.872247492854845
13.424441982810379 -13.424441982810499 95.848632396597012 -0.354065673104040 0.354065673104041 -0.865606722627987
13.209882816094797 -14.391991562483852 95.562483946092655 -0.350230241768569 0.374883154248485 -0.858371363927896
13.155901173361030 -15.113306841582052 95.260179371936715 -0.347870554573046 0.393277555986617 -0.851069234092171
13.110119940151591 -15.941459328342752 94.850169816809938 -0.345608903760345 0.412425213972654 -0.842887850500399
13.173170175921754 -16.745967023163217 94.420931727202188 -0.344150721582487 0.430932211530729 -0.834180861623838
13.243589586423830 -17.239383310704213 94.172939600875068 -0.342593622916547 0.446256986311160 -0.826731099998903
13.220705209134287 -17.746539060658925 93.915809635375595 -0.340242128667315 0.461509108092637 -0.819295207496952
13.192780614247823 -18.205487840580972 93.648147527385532 -0.337876294878611 0.476152907157182 -0.811860836821721
13.018623153113552 -19.065744316145668 93.231266140744083 -0.334107234591523 0.493817224801048 -0.802818101616672
13.002874505716747 -20.038258806803768 92.616871074264523 -0.331743430893138 0.512206045734358 -0.792206578344577
12.986143521792670 -20.423303149328994 92.331639522326086 -0.329402612981499 0.525359445571663 -0.784532581547507
12.817725667765977 -20.937098158070405 92.062601248264002 -0.325647310113608 0.539153363351644 -0.776702954933468
12.632595277893230 -21.198567000292570 91.941092815313709 -0.321804852792940 0.550639331492775 -0.770219425444531
11.859073482959928 21.219622895592764 92.249907675834521 -0.303455492328707 -0.553039556696045 -0.775926551230840
11.966631441308380 21.035663176763421 92.357218255235310 -0.306525891074192 -0.542180543640520 -0.782356783187084
11.883255027857558 20.621894739965811 92.667894079267825 -0.308011304733876 -0.529205227710654 -0.790614231543962
11.887027618982728 20.130083658514579 92.959609502349934 -0.310267058683361 -0.515371948599421 -0.798827958256853
12.083792807541542 19.148683524665699 93.514577585845387 -0.314063005515542 -0.496841712299210 -0.809019617491525
12.288333705930604 18.294814321695370 93.925910588670178 -0.317978257172116 -0.479170493177383 -0.818098689910898
12.423145136981077 17.685960944514569 94.242242987239578 -0.321166580217206 -0.463162511565558 -0.826034209722496
12.621093663497426 17.174484277933871 94.436058828976371 -0.324952312459182 -0.447810128587227 -0.832989845893767
12.570889852299516 16.617322582610562 94.780709457212680 -0.326409722760177 -0.431626054321804 -0.840925467635637
12.353116925415343 15.827340021591333 95.259503978880886 -0.326388816826554 -0.413173494168597 -0.850151753492913
12.300359489878367 15.314216003594645 95.491555273182158 -0.327849084207544 -0.396987754767884 -0.857272244125884
12.277376958427212 14.607980274281381 95.825409699245753 -0.329417158213081 -0.378659899578314 -0.864928330167396
12.500686834054804 13.662629917854460 96.112951237675219 -0.333237470133903 -0.357962427787045 -0.872247492854844
12.747908049418584 12.747908049418669 96.384930799968430 -0.337133224344903 -0.337133224344904 -0.879023536707419
13.004965014984613 11.875385001970336 96.643934753164444 -0.340970184253775 -0.316310662287903 -0.885260921069565
13.097742619961494 11.285925866611208 96.811941770204953 -0.343329585242078 -0.297908509215302 -0.890716181527325
13.177631319299294 10.634453115021845 96.958471109016173 -0.345590807867104 -0.278770013076627 -0.896021357628835
13.033998155050774 9.930318317067613 97.224270848054985 -0.345604862742841 -0.258827983273658 -0.901978577308238
13.067290144984405 9.009075930641895 97.493678349654303 -0.347072886018658 -0.236575685847919 -0.907508874147392
12.950260761310311 8.183757242042567 97.735272288172766 -0.347146826947888 -0.215069648286566 -0.912816589970793
13.004061151232989 7.374914968136380 97.916383097052659 -0.348626122986166 -0.193464128202083 -0.917077672539596
13.145179887013612 6.357922384759508 98.046068553983361 -0.350933877026520 -0.169781838872542 -0.920879764759870
13.307407753140282 5.516207545948131 98.137528289420885 -0.353253861932978 -0.147533253750806 -0.923821220836119
13.390845783388514 4.596859175666264 98.211029088310411 -0.354840982954887 -0.124451449907220 -0.926606558055575
13.572574120687953 3.625021779340450 98.254851243945922 -0.357162121923145 -0.100711386252154 -0.928597025271202
13.685378974230936 2.966875438863044 98.297982330056371 -0.358634960490405 -0.079814792684862 -0.930059441101867
13.644821566303499 2.174699060458166 98.358512121562342 -0.358658440525751 -0.057601108842078 -0.931689988837381
13.621109244065131 1.389679179605544 98.420356933665957 -0.358637657511754 -0.035384600318506 -0.932805960891536
13.680402304372599 0.429104830963581 98.396604594839218 -0.359404004783050 -0.011477997448683 -0.933111470790320
13.684345968677533 -0.678364541994930 98.391703620671279 -0.359441403211736 0.013841769008961 -0.933064994031970
13.790820739947975 -1.553252449500713 98.348594316713417 -0.360246144819903 0.036934910904186 -0.932125810982025
13.817087655941386 -2.174866788689328 98.292013777382707 -0.360290211764151 0.057602697628960 -0.931060090720685
13.855039166603341 -2.803047220502545 98.246323337008008 -0.360240222978554 0.078264710194934 -0.929570662664472
13.658752928590779 -3.539118804241163 98.230943063970045 -0.357976589439474 0.099899525604774 -0.928371071391835
13.710702120617775 -4.750444041226118 98.067167019445748 -0.357858780268118 0.125900500436137 -0.925249240677854
13.400779880009786 -5.841313028366139 98.049282754951875 -0.354132823872821 0.150593646129776 -0.922990518261808
13.318841330930944 -6.605081476493858 97.933790578599940 -0.352564960373166 0.172103235432459 -0.919825214413449
13.176115465938153 -7.292770146375638 97.868108348945398 -0.350237571096171 0.192694765817886 -0.916625534784541
13.115363451007703 -7.777184506053306 97.767285913541286 -0.348688833949825 0.211272387279848 -0.913115587125631
12.998190781091843 -8.765806941880072 97.583153096277059 -0.346429682408004 0.234311243990320 -0.908341739702849
13.116885275518051 -9.762706991536664 97.240427455354421 -0.346373831297134 0.257273002982992 -0.902128466976105
13.177631319299877 -10.634453115021952 96.958471109015917 -0.345590807867109 0.278770013076628 -0.896021357628832
13.097742619961160 -11.285925866610810 96.811941770205223 -0.343329585242075 0.297908509215299 -0.890716181527327
13.004965014984847 -11.875385001969775 96.643934753164558 -0.340970184253777 0.316310662287898 -0.885260921069566
12.747908049418378 -12.747908049418463 96.384930799968600 -0.337133224344901 0.337133224344902 -0.879023536707420
12.500686834054918 -13.662629917854240 96.112951237675276 -0.333237470133904 0.357962427787043 -0.872247492854844
12.277376958426842 -14.607980274281061 95.825409699246038 -0.329417158213077 0.378659899578311 -0.864928330167398
12.300359489878190 -15.314216003595277 95.491555273181930 -0.327849084207543 0.396987754767890 -0.857272244125882
12.353116925415137 -15.827340021591361 95.259503978880943 -0.326388816826552 0.413173494168598 -0.850151753492913
12.570889852299416 -16.617322582610385 94.780709457212822 -0.326409722760176 0.431626054321803 -0.840925467635639
12.621093663497057 -17.174484277933793 94.436058828976556 -0.324952312459178 0.447810128587226 -0.832989845893769
12.512042932927152 -17.860706231883142 94.109400712282820 -0.321945770294742 0.464694155770735 -0.824869845843482
12.383049833302096 -18.389918304218185 93.833251178345861 -0.318803238683931 0.479998852924120 -0.817291622492343
12.180520392257399 -19.150051440267923 93.476129732613643 -0.314899821716908 0.496853546502880 -0.808686994831851
11.981529422429062 -20.034856818812301 92.984241219553653 -0.311079139146078 0.514553637697107 -0.799039625501020
11.971629351421448 -20.439572540356032 92.755241235775983 -0.308765287530257 0.527649710266667 -0.791359450864056
11.966631441308031 -21.035663176763023 92.357218255235694 -0.306525891074189 0.542180543640517 -0.782356783187088
11.859073482960355 -21.219622895592366 92.249907675834621 -0.303455492328710 0.553039556696041 -0.775926551230840
10.914134219996825 21.401899386523368 92.448781578213243 -0.283509705430258 -0.556820786981871 -0.780751470131013
11.193051043533949 21.043114393506286 92.625109639511749 -0.287907638373173 -0.544457466985679 -0.787829460232302
10.972638793219609 20.546696184770639 93.042050695157087 -0.288091225847851 -0.530737138565670 -0.797070596206263
11.074931694626358 20.064247015874962 93.293790656345507 -0.291062056213878 -0.516938450391535 -0.805020197224484
11.276725177627561 19.355157846858340 93.685163105505225 -0.294787378834398 -0.500707217851258 -0.813875102992835
11.485880131683466 18.593813506734428 94.054155508327568 -0.298627920333101 -0.483797459168498 -0.822655081853648
11.555659093353412 18.067059849451340 94.361309151883958 -0.301134663263387 -0.468473812599695 -0.830572213290062
11.767649129781411 17.378505294713449 94.662434253896052 -0.304933113028447 -0.451521439407507 -0.838536932003686
11.801054309125192 16.467986375280958 95.092729221339354 -0.307188234903496 -0.432372616343772 -0.847755453520008
11.761165430123071 15.681751722570084 95.498967564395087 -0.308648690073743 -0.413868726774012 -0.856416174014842
11.588694884430829 15.135761524212953 95.857253615797831 -0.308763365651707 -0.397096849014633 -0.864279628670073
11.566073966653242 14.680208371875615 96.078694647045992 -0.310237729731241 -0.380962363991257 -0.870988075850294
11.631955417906752 13.909634956305666 96.359933170404076 -0.312534914027042 -0.361780010539656 -0.878314950053815
11.875385001970344 13.004965014984755 96.643934753164402 -0.316310662287903 -0.340970184253776 -0.885260921069565
11.971819931996492 11.971819931996137 96.965305370372263 -0.318770780926047 -0.318770780926044 -0.892619951858347
12.236633059472950 11.145247613969339 97.157378745231810 -0.322634147567942 -0.298095216033004 -0.898357639807969
12.348099638565593 10.579965349020764 97.333258018962624 -0.324926665168157 -0.279506315316261 -0.903492602051078
12.368944529567216 9.885853409830258 97.533547649242450 -0.326392643086080 -0.259571367158981 -0.908895234826600
12.313940949589501 9.120682062196348 97.728877945268877 -0.327160547755538 -0.238814969241242 -0.914293927825511
12.200988081233042 8.222192408647256 97.987632659173912 -0.327205839493411 -0.216520627134584 -0.919812566029981
