ply
format ascii 1.0
element vertex 423
property double x
property double y
property double z
property double nx
property double ny
property double nz
end_header
-7.274062050246290 -3.545392296009326 69.194180512004451 -0.237420315955636 0.060622702760394 -0.969513528261236
-5.932166587352587 10.068307009223975 70.150735399178899 -0.250124243094617 0.129434318024566 -0.959523121312801
-6.996225691708794 9.836207940580184 70.405077254632090 -0.234799240740166 0.153477056024810 -0.959851087316048
-7.613617923238728 9.264901460426493 70.430316434082400 -0.225643865698618 0.181972394884815 -0.957063683028705
-7.886104925467311 8.391235270835628 70.302678344195598 -0.221039992888519 0.214203745150418 -0.951450512169381
-7.591908678594095 7.039422256294262 69.895311291230769 -0.223930522847218 0.252415188467417 -0.941350993821290
-7.200376004441182 6.527329468623154 69.661039920519130 -0.227914476972798 0.278778900915720 -0.932918707921778
-6.788320484459991 7.199927023710551 69.803568460020713 -0.231941843187492 0.288839959764331 -0.928856533067475
-6.395635190264759 8.994456947263430 70.228314919013854 -0.235849077805151 0.284164259001410 -0.929314740227787
-5.724183614597369 10.945453344161322 70.689056392093377 -0.243189564568082 0.277262283442981 -0.929507644866448
-5.377688127725463 12.158345016438524 70.945040000805065 -0.246385012060606 0.280311298333483 -0.927749967317969
-4.847864737306093 12.667099615870669 70.930099528617347 -0.251929838245466 0.292484723424754 -0.922487963696415
-4.298450828274543 12.723786173563390 70.806357708026155 -0.257468000151550 0.310132658994915 -0.915165538426084
-3.978214259868075 12.854432167236958 70.741926379283214 -0.259994036482106 0.326612945828684 -0.908695264987581
-7.196384488162270 -15.476590268920759 72.681267267960564 -0.195126410599997 -0.346991792642676 -0.917345289258621
-7.543740492204039 -14.134235830109525 72.249328021055462 -0.192051207368102 -0.346575348454575 -0.918151328263508
-8.171325291459292 -12.021518297355382 71.578857767306275 -0.185347724997322 -0.356010642388287 -0.915916286209933
-7.742250035446506 -3.901911466012952 69.347098872740972 -0.210204368774538 -0.022083700267612 -0.977408017938562
-7.617298318798539 -3.864254904254895 69.337801153068170 -0.211965492335468 -0.000591897050671 -0.977276971854379
-7.448856671846869 -3.708904595578482 69.287618237986905 -0.214339581792151 0.019241079571226 -0.976569672135122
-7.437630496732837 -3.986127682325065 69.285947200396365 -0.214316568135011 0.045132765558725 -0.975720985782233
-7.500454724639280 -3.740140733884036 69.287832953577791 -0.213251657174064 0.063618836835290 -0.974923778719260
-7.797433364592651 -2.748402184972767 69.435593569295705 -0.208720559564649 0.071529037575120 -0.975355999006822
-4.669000363759778 8.918669247872815 69.687835956522250 -0.247247417680278 0.145877398654669 -0.957908398027797
-6.737953807411884 8.866595060300931 70.198841607031284 -0.217196018455289 0.188151929863543 -0.957822917274271
-7.064540376745583 8.340360486443025 70.144589509668378 -0.211872667797995 0.215768304301630 -0.953180996190629
-7.043541108703417 7.606278957201862 69.960819382487784 -0.211125204750461 0.245773780159542 -0.946055704969409
-6.834605130407551 7.174486708984350 69.812414883874254 -0.212742300249999 0.271201604020649 -0.938717424820146
-6.460574713844238 7.651783043620231 69.853359521397124 -0.216548673434360 0.284188620890223 -0.933993308214964
-6.178788694277884 9.196868315828098 70.296324360047606 -0.218911403025403 0.282607701397262 -0.933922204863127
-5.802472121769114 11.055455710394078 70.745617003114688 -0.222668488284197 0.277127682515602 -0.934675875321901
-5.471489816842855 12.506594550417091 71.082684195889101 -0.225788466471648 0.277061561550163 -0.933946711284839
-5.083274425292295 13.078081083245529 71.137795065169001 -0.229622051152590 0.288490381768646 -0.929541291848543
-4.807583977301348 13.096988441914199 71.026333159632458 -0.231951475278735 0.306975458844520 -0.923019274329206
-4.353683202589298 12.617003352644691 70.723174367741933 -0.236375652814293 0.331450944690111 -0.913382078880821
-3.477327707391701 11.205905577470951 69.938284984156667 -0.245978226146060 0.367293118154791 -0.896989675313026
-2.486920275465796 9.873040707809849 69.012136252966073 -0.256901410323961 0.401645768592411 -0.879023516150377
-6.998496467611027 -16.160909745262813 72.882978271254217 -0.177365717030187 -0.356994340691295 -0.917113102696039
-6.618666983572107 -15.637912265587143 72.618469967376171 -0.183391397648903 -0.346266789996362 -0.920036360919500
-6.177915927238875 -12.390665843950764 71.370961631707999 -0.191449545279953 -0.352369197228202 -0.916069331686664
-6.474047774244703 -10.721974499998840 70.736035658957320 -0.189104931131229 -0.356477499676642 -0.914966183662622
-7.976638949244302 -10.386995137546329 70.951226410339757 -0.174128647959056 -0.287325831175543 -0.941872114832600
-4.013715505861846 -7.697466283523656 69.343680927902227 -0.235944667690816 -0.163472630425146 -0.957917957285567
-4.517953558187742 -6.273833141985849 69.239399130868691 -0.229740768424286 -0.162091709743786 -0.959659031612872
-7.639875146047620 -3.203641321568222 69.320163257807465 -0.190429934238533 -0.032060986248150 -0.981177116175619
-6.221713323443362 -3.066782455436317 69.001795985028835 -0.210681919203239 0.010242703717755 -0.977501005596102
-6.137210874133270 -3.937688970373781 69.037981795550209 -0.211519433260737 0.044639216099191 -0.976353865019802
-6.307566049045601 -4.065280173942702 69.038198190868229 -0.208932936992432 0.068482834166210 -0.975529153467122
-6.519914999672851 -3.306515179853637 69.145281377550077 -0.205583791794712 0.079704685849254 -0.975388367577233
-8.604922464755976 5.014078352931787 69.652636400548545 -0.176022939185962 0.072475992206740 -0.981714396061290
-5.108818743304688 7.033239935184767 69.488083993865473 -0.220816842888456 0.172648294858616 -0.959912750295144
-7.161295160474570 8.680410970635339 70.206382235779273 -0.189325381703023 0.232379929737256 -0.954020685361860
-6.189707587503879 7.828668570144760 69.817699880135251 -0.201378765200596 0.263681683959671 -0.943354950413934
-5.695151380966447 8.076059937369489 69.840865132990629 -0.206720346610734 0.279637401834213 -0.937587127574045
-5.494276226140306 9.304596776172719 70.144444799977023 -0.208242875101585 0.282527742942561 -0.936382923507903
-5.413472584811226 11.042661808228676 70.627310340256898 -0.208154485798338 0.278621906169804 -0.937572153727026
-5.596273939420394 13.350740963958085 71.317718075039792 -0.203459052915578 0.286274242300668 -0.936296679467504
-5.797118242044174 13.482978200918843 71.359232519433135 -0.199721004804228 0.303378662998840 -0.931704302381945
-5.930926712636383 12.988453569196668 71.269910471854288 -0.196587881334936 0.327924237401832 -0.924023213689282
-5.669448558256107 12.169655275197659 70.914485869932705 -0.198587632827912 0.356303524202425 -0.913022864296803
-4.800051783058382 11.085522293426266 70.228007018276159 -0.208332671230554 0.387683514979846 -0.897941529449893
-4.185079237415664 10.596724402399232 69.904404094097018 -0.214386595189354 0.410447896508188 -0.886324383087321
-6.423753937654288 -14.827161161548869 72.307403663962063 -0.166571305913658 -0.357625986001412 -0.918889359054036
-5.493079743746822 -13.456788185330701 71.618292775845973 -0.179631097328895 -0.357638666854374 -0.916420892845118
-5.089027906067395 -12.133042015851093 71.041192163467741 -0.186087129157745 -0.357050740679666 -0.915361321523873
-5.079174237503633 -11.300377891641261 70.666188141341365 -0.187664923548843 -0.350355435766248 -0.917623531247128
-5.315050042717354 -10.878377890317715 70.553778977512692 -0.185905583330491 -0.337915157704751 -0.922633437655456
-5.718192616324581 -11.353453512182135 70.831535526732821 -0.181774672768462 -0.313235905879956 -0.932116535422198
-6.482234085658892 -11.495430277349048 71.015121974849620 -0.172811758897379 -0.292654214311362 -0.940473076080646
-7.157099279498023 -8.835474370534541 70.324489898511715 -0.165851102003779 -0.289951422456312 -0.942561183467521
-5.521152646277752 -8.184006792450496 69.737207742552656 -0.194503642284080 -0.157534960537963 -0.968168926038493
-5.909342274504002 -7.161552349838653 69.652366857619555 -0.189746590409472 -0.150539039562075 -0.970223803560657
-5.062182003005644 -2.407778203590774 68.723321163106618 -0.206024035269747 0.000911693059815 -0.978546506665337
-4.823826477388534 -3.841833800677116 68.824797466983767 -0.208173015182045 0.087552495409443 -0.974165569242516
-8.450684770673188 7.935405178954846 69.711804999549656 -0.156970749813384 0.009326318473511 -0.987559215179907
-8.606527983795742 5.585218376593799 69.711263213102669 -0.154500382070489 0.064644769104882 -0.985875593453580
-7.833613600694830 4.488960107767696 69.482259180195257 -0.165150873913669 0.102072425416240 -0.980972175352185
-6.955869741280765 3.882243405470287 69.252715371923159 -0.177093089124338 0.132361732073366 -0.975252997773879
-6.095913744172279 4.025153167216443 69.068558709897275 -0.188725049246070 0.151967928540294 -0.970200290910202
-6.965397658719739 9.879068306386470 70.431839904410012 -0.171453845562563 0.216976145362444 -0.961002045359667
-5.434351121097691 8.535066488437810 69.861827678353009 -0.191248119371894 0.255171394811589 -0.947793076629399
-7.775598411452373 14.287324039202403 72.027482845743904 -0.153970551257991 0.293797327580846 -0.943385498961937
-7.183543835734678 13.353738983655148 71.617052766858322 -0.160714644855725 0.324450227988349 -0.932149586969391
-6.698576503914401 12.504762205848881 71.232149604894843 -0.165861102443914 0.353353855423951 -0.920668858794039
-5.842568891895981 12.072833865253617 70.933007883399654 -0.175563436040836 0.376214135369326 -0.909747439828135
-4.759643815421658 11.715394678756962 70.556873030852600 -0.188005678816066 0.397777209128714 -0.898012893354367
-3.576457777157934 11.750840034687371 70.276441483842731 -0.201525732257699 0.414050902681731 -0.887665043373029
-6.642329743715432 -14.581870700837499 72.209189053561062 -0.143390559011072 -0.379154061262976 -0.914156083726561
-5.331419740956923 -13.774562293271693 71.644883893186602 -0.161210999605091 -0.372422346048326 -0.913954380573882
-4.253007241768096 -12.535490034371104 70.985774064928307 -0.176181666772407 -0.370851123514822 -0.911827540975315
-3.454005157800818 -11.869171505792906 70.594484488784957 -0.187747313959374 -0.361849417852892 -0.913135228156577
-3.220408148042157 -11.582352216463370 70.385221245386816 -0.192261007065022 -0.348049769046234 -0.917549488272543
-3.453254705564014 -11.510840421789002 70.396950154491392 -0.190567090645083 -0.330942754079178 -0.924208351772238
-3.953801914657372 -12.021596248136223 70.691902831558622 -0.185162479658378 -0.305650069386495 -0.933966215240568
-4.671535179520999 -11.990822215695669 70.802836731053119 -0.176801154374139 -0.287234779740784 -0.941401897766961
-5.490617449829033 -10.894902935180927 70.647683194963136 -0.166842258994130 -0.282609266811326 -0.944614028546104
-6.260049663195144 -9.156936798342372 70.282358060046320 -0.157438487788152 -0.286564652435897 -0.945036413339335
-6.973094557539021 -7.720350028732245 69.928429867959395 -0.148811144166477 -0.286722154165215 -0.946385571362287
-7.388947267619281 -7.153597009834368 69.781470293894031 -0.144119367012406 -0.275032733825986 -0.950571724477510
-7.335289755933431 -7.733566278136017 69.919601940467459 -0.145683795644151 -0.247262415698917 -0.957933990142040
-6.933302792707643 -8.431599982540378 70.029291723258822 -0.151940619679091 -0.217364037139744 -0.964192368487661
-6.412670473483820 -8.608948923491818 70.005423064522404 -0.159768830727446 -0.194211268858125 -0.967861510639049
-5.856505479783197 -8.540595582956163 69.885855127231082 -0.168155553522377 -0.174276751590224 -0.970232613178274
-5.674058503367160 -8.171574487982095 69.811191318185394 -0.171259109856983 -0.158234789135226 -0.972436151527865
-6.039827848812049 -7.810690129558695 69.813445237858218 -0.166721483594521 -0.141971486658858 -0.975729493191589
-5.770407654876617 -1.303297738166013 68.869624534723457 -0.174286931634853 -0.037190345218374 -0.983992349403107
-4.755823644414640 -1.690568665200272 68.667290839713104 -0.188945035829906 -0.009340502428139 -0.981943240951138
-3.780658108425541 -3.099558239064149 68.436309042677962 -0.202889916939432 0.033151840970458 -0.978640197950493
-7.610817140639620 4.679500402002001 69.470211544071660 -0.146733713831426 0.099720209633064 -0.984136726789512
-7.322991667852301 4.647149469025848 69.429914572571235 -0.150427558741666 0.122002268347805 -0.981064216088332
-6.922845511817600 4.930224733974566 69.380202585736441 -0.155685757409195 0.139725514672663 -0.977874595993466
-6.548248483150060 5.097241831594813 69.351961611410630 -0.160422833499788 0.158856695721382 -0.974181227860804
-10.125504973342807 14.965291411327858 72.512086212456637 -0.103051439057380 0.285816037165578 -0.952727449907458
-8.953791239600443 13.908302227302713 72.046637918904082 -0.117704122736644 0.318226240667153 -0.940679434898865
-7.832839394642999 13.343237521953579 71.721845030653782 -0.131413335995812 0.343582425490035 -0.929882601201268
-6.577184989315436 13.338640314875807 71.584875729240963 -0.146553004125622 0.361091080472458 -0.920942695603254
-5.235257450584527 13.340886800914603 71.317885482887533 -0.162686758009652 0.378534089677851 -0.911177788206050
-3.791613163536573 13.166280191756552 70.962837880458039 -0.179753224755464 0.397679343327545 -0.899744362627844
-6.671844848267984 -12.590701274227552 71.386685057078324 -0.123517385506053 -0.405285480596021 -0.905807449017616
-4.787716589946093 -11.794412684560044 70.781173163085029 -0.148555599156807 -0.398597843184247 -0.905014360862870
-2.373121472687343 -11.811254190959549 70.274838900221283 -0.182366842460203 -0.364294942287725 -0.913253267059406
-2.376526939124622 -11.943816724536539 70.276802568811078 -0.183755377352657 -0.344956558945167 -0.920455829323000
-2.763818927678004 -12.188571926710722 70.486958638670629 -0.179813247295664 -0.323318545845384 -0.929049145099125
-3.313428827726046 -12.572844688530068 70.726373710863527 -0.173667876008409 -0.299554388001989 -0.938139988206175
-4.074517704913593 -12.706633516903377 70.874289016708147 -0.164620642038265 -0.278829481819472 -0.946125871268297
-5.111269195115554 -11.845361194595753 70.807580115077698 -0.151630833734521 -0.270987901804326 -0.950564909586222
-6.039786240028798 -9.987154716624609 70.486151716214579 -0.139841680290992 -0.276292935159522 -0.950845160073042
-6.751925451878391 -8.312719651826381 70.050146504617587 -0.131083836362819 -0.279613446682602 -0.951122152133301
-7.251614668050577 -7.045151658603810 69.762400025469972 -0.125012089743950 -0.277189653712907 -0.952647822278710
-7.072084381958494 -7.114954468037549 69.754848314138073 -0.128198950941375 -0.256369942754600 -0.958039394508145
-4.985582550671046 -7.929559294062569 69.642490895067425 -0.159084377341259 -0.183370813566478 -0.970086236175894
-4.534576095551294 -7.940504414450055 69.599716058885519 -0.165921368336110 -0.161995046618448 -0.972742362807624
-4.468274484440999 -8.068880905245072 69.603113669552386 -0.167409557082583 -0.138828622840484 -0.976063857376979
-3.603730000833345 -9.565272910814706 69.633134455776002 -0.179987628274521 -0.096175693648043 -0.978955918118600
-6.308253645462917 -0.993255538894053 68.991429315186437 -0.144525495270317 -0.064054593689795 -0.987425637830062
-5.755458960415284 -0.464059278376908 68.785231505513408 -0.152830980622539 -0.049392893121296 -0.987017240716220
-5.068250451920980 -0.834576128941209 68.744950799856369 -0.162691914881318 -0.021655529789909 -0.986439242356958
-3.961629454441157 -2.213930868022775 68.493910276808236 -0.178724982702267 0.020575626425718 -0.983683904592966
-3.175238650876411 -3.629394978934163 68.280177574089279 -0.189855235315305 0.063289496038659 -0.979770090028545
-7.217167717359601 4.589051101408621 69.442755276690235 -0.130508198872893 0.101259748595248 -0.986262679685985
-7.313091583497163 4.781072915029302 69.422923876314243 -0.128926108273116 0.120518603218073 -0.984303471945473
-7.278221105540492 5.226517272656080 69.516766489603185 -0.128981615012852 0.135894202732004 -0.982291458098109
-7.030166777879625 5.560560705160100 69.547682830786457 -0.132038913140690 0.152734675325164 -0.979406883971081
-8.987718025073470 14.293127873215422 72.166636891069416 -0.097088495941978 0.313939564543706 -0.944465866916234
-7.986622542389592 14.132168995639912 72.036983388612839 -0.109416861047569 0.334133606294478 -0.936153130456307
-6.952382973618286 14.503513002315163 72.052531116407636 -0.122001123065966 0.347176887310425 -0.929830056993259
-5.726965754005953 14.789344453655108 72.041113893719682 -0.136756105083801 0.360858055402035 -0.922539555560503
-4.566481868717801 14.528856319965342 71.710202649732423 -0.150575710686534 0.381564208063521 -0.911995455293558
-2.113475343185176 -12.095592842814856 70.307911230118421 -0.166083165777101 -0.362011182742142 -0.917259115852817
-2.453292670335227 -12.380945008864700 70.486756688954912 -0.162796706473062 -0.340300945882739 -0.926116892510247
-3.009091689788880 -12.697827362893872 70.666548227168363 -0.156605244279623 -0.317863208113089 -0.935113778313727
-3.655076137971932 -13.066596489612198 70.889836260215631 -0.149003513943642 -0.294175702628683 -0.944064938876224
-4.508272299120003 -13.570543473208353 71.188889590160500 -0.138415397092273 -0.268155973306437 -0.953380066829523
-6.564999004147763 -11.352575609565612 70.892638959367119 -0.112041561724892 -0.258711251731417 -0.959434821482841
-7.139576187119953 -8.986779336624334 70.297235325095457 -0.104861491940657 -0.271123869108148 -0.956815507351238
-7.352041043992087 -6.726181724094960 69.615589312357798 -0.102640210385093 -0.282471136811961 -0.953768863027234
-6.817387764911571 -6.106875073567394 69.452238124665982 -0.110510288242991 -0.270884963877635 -0.956247254917610
-5.798947144863806 -6.427328390230826 69.396980902739273 -0.125256929166822 -0.246384456581764 -0.961043912238461
-2.672243341334051 -7.944402831530233 69.237179242831971 -0.171405529624925 -0.141168105456552 -0.975034209869483
-1.898795136787713 -8.633462620354795 69.201884511480060 -0.182760904464384 -0.109738633060076 -0.977013758456587
-0.789017436840275 -9.031303829466083 69.054935103095289 -0.198765840237021 -0.082201190362522 -0.976593623293668
-5.757016173315378 -0.594484838295619 68.862251687672696 -0.130500270381798 -0.070002371990584 -0.988973886078884
-5.770300572783556 -0.004869886040940 68.804737109432750 -0.130534447233728 -0.056126889856985 -0.989853792395810
-5.517194874599026 -0.310069120259763 68.790857034726912 -0.134291650473736 -0.029282662055295 -0.990509100572022
-4.790223926986096 -1.191624575135775 68.656611525819656 -0.144884364793398 0.005914030481853 -0.989430919812936
-3.651376851741560 -2.629721713880806 68.457275400626699 -0.161157280752461 0.049114063554799 -0.985705909296281
-3.727700800372553 5.385528373310215 68.966264681984200 -0.158959662514335 0.045877615139279 -0.986218571170945
-5.128455940949129 4.773672454846677 69.163888123185941 -0.138690850236272 0.076839079873709 -0.987350294406652
-6.388729442388659 4.180381982919266 69.249653681512555 -0.120493381183003 0.107430070073831 -0.986884048475311
-6.906557392819031 4.433132079222137 69.338548317487295 -0.112824344096389 0.125772820480140 -0.985622577363004
-7.256845804445395 5.195415048211910 69.514722306757307 -0.107478455808962 0.136681328117128 -0.984767280163724
-7.244406402471982 5.761537919416636 69.550938035429780 -0.107380861912223 0.150412774912864 -0.982774311649425
-6.434001688409230 14.534461686849934 72.116490197579239 -0.109373758766950 0.329162287854728 -0.937917677169713
-2.779351365720174 -12.382496876851274 70.527142306927942 -0.137441416493650 -0.359393444878272 -0.923009322168930
-3.493983236080361 -12.932440305748891 70.837166490314360 -0.129000484564645 -0.334108470993161 -0.933665038754638
-4.131015646956591 -13.328867846613978 71.083322405013533 -0.121371990357387 -0.310251786090808 -0.942874683711547
-4.871045160405997 -13.802074466175640 71.307613491314427 -0.112270789475290 -0.285064417752294 -0.951910472451134
-5.723562635811815 -14.479318269280537 71.598044395897119 -0.101459086645029 -0.256603996921996 -0.961176592776173
-6.793825375875236 -14.301797228351358 71.623632455804554 -0.087585049603413 -0.239360777260006 -0.966972221625551
-7.633800847863967 -12.299864922237216 71.274194720846111 -0.076554821094429 -0.246290972993938 -0.966167747334229
-8.067190288789504 -9.448050599178345 70.591926998813364 -0.071026559204611 -0.265061972494506 -0.961611864852382
-7.722106197178659 -6.252623936721278 69.529110605288480 -0.076288511085788 -0.289434967246860 -0.954152746058577
-4.243592109194067 -5.831433321575801 69.016218264884472 -0.126206645591481 -0.234950658824524 -0.963779056903847
-3.200514248036388 -6.801680182776609 69.070094882218712 -0.141484010553875 -0.200590453575065 -0.969404840452192
-2.530310281801082 -7.362392718408573 69.128549150375733 -0.151400362177143 -0.171368219709779 -0.973504424030076
-1.823112532342353 -7.648755887497192 69.008064074354138 -0.162044088073224 -0.145948156024647 -0.975930760491503
-1.040614972864571 -7.903748051438511 68.937328166583114 -0.173552176763582 -0.120551565979888 -0.977418519305021
-0.453185923122074 -7.875882009937600 68.818689959287795 -0.182346326608073 -0.099045742573737 -0.978232977388597
-6.028744327768984 -0.609703005604437 68.899153287834480 -0.104427727461930 -0.069964679544933 -0.992068441869467
-6.094807897019586 0.087116820773425 68.840808909652253 -0.103655590696386 -0.057599406040292 -0.992944020044025
-5.945407643675235 -0.053469104976122 68.842377430947579 -0.105902156147319 -0.033063099394022 -0.993826727745743
-5.580776922370728 -0.348248326423047 68.778916274766829 -0.111262434296045 -0.006256345521990 -0.993771366489912
-4.376343284432345 -1.435406278823807 68.598929811831525 -0.128665029844931 0.032027976864959 -0.991170781849899
-3.071878194182389 -2.018617964451445 68.374493585497973 -0.147385185589976 0.062976295141496 -0.987072233080669
-5.807281836316592 3.492008619211489 69.162584004227810 -0.106694763221747 0.117440990446660 -0.987331677433659
-6.546492442565892 3.907392121522392 69.275007969084271 -0.095895736258495 0.133473698967359 -0.986401936054168
-7.018602258332860 5.049213946186066 69.443605945791234 -0.088945430218252 0.139107173040959 -0.986274761337754
-3.040682604510332 14.111008366467441 71.567751807605958 -0.134337759353137 0.317069941408009 -0.938839719370405
-3.701617583327735 -12.976674467905678 70.886520158393182 -0.105170305872652 -0.352447534200372 -0.929903189799202
-4.444488195217452 -13.464246271965202 71.134924904425034 -0.096105982359394 -0.327876915418613 -0.939819327578610
-5.072648432790486 -14.071139308344119 71.410497575059154 -0.088367259236930 -0.301124992576198 -0.949481419692317
-5.866319743490692 -14.603968658224343 71.609536318434536 -0.078314335026218 -0.275020491660319 -0.958243494158096
-7.082219366043373 -15.605099476558802 71.950588156219268 -0.062394437275691 -0.242075770736660 -0.968249066831103
-8.189574834553964 -15.631887284542032 72.022276589805500 -0.047723802102042 -0.221762849431480 -0.973932070179926
-9.394437175332600 -13.558057647908754 71.706276950250370 -0.031533208854530 -0.229421955665327 -0.972816130107860
-7.217965008058040 -2.999698701683318 68.500896015296590 -0.062225701533831 -0.314966836697313 -0.947060638950596
-3.863867552487751 -5.037651438999482 68.775945696748323 -0.109966154942073 -0.246655446745072 -0.962843982874819
-3.147168401176902 -6.189425951835204 68.958929904414944 -0.120607592497863 -0.209713297427393 -0.970295904100393
-2.701243780101345 -6.864683059723593 69.040825339226544 -0.127419898543149 -0.178982152610943 -0.975566275812160
-2.201611696417665 -7.138041440688754 68.979277544881171 -0.135052338634629 -0.153692472815542 -0.978845998934031
-1.628156797711137 -7.275087004141215 68.960031113457163 -0.143556596988033 -0.129906999514281 -0.981078832173242
-1.533706576679128 -7.815245351636757 68.948295938862799 -0.145396765500655 -0.100335541018747 -0.984272604409176
-6.066510490713489 -1.757858940397905 69.018447064985239 -0.081385738074680 -0.075930756797726 -0.993786134845000
-6.189655447209684 -0.831334163556262 68.893079389632490 -0.079819468063957 -0.066946958805309 -0.994558674601306
-6.403353509028137 -0.123746142201396 68.901838326052683 -0.076800989610921 -0.054652562603650 -0.995547440052777
-6.519369012763480 -0.056101421793531 68.856090517340547 -0.075255188699327 -0.033111138778499 -0.996614423467080
-6.264060744352473 0.071386506724305 68.869060369020033 -0.078950488575011 -0.012340953925667 -0.996802147474599
-5.329249604696357 -0.165032297535198 68.787403894258048 -0.092480827837656 0.013696371363948 -0.995620261894023
-4.097681723719155 -0.195169015487357 68.621434760292374 -0.110306386977578 0.036747995592522 -0.993218045452198
-2.134408162250038 2.547198396688227 68.517753704831804 -0.138242345849560 0.064676930669433 -0.988284345951706
-2.813652606998739 2.639647681395816 68.679604002940749 -0.128112464292926 0.085658212035739 -0.988053575067483
-4.854346190362405 2.702777897414780 68.944971588823208 -0.098245367248284 0.129039245779093 -0.986760721179665
-5.545553511468399 3.430606831219555 69.078643402106124 -0.088125574425862 0.140623028819136 -0.986133381900159
-5.858139815119356 4.951558858293872 69.343218144796424 -0.083377581233186 0.140733975554220 -0.986530347770614
-4.543983894484268 -13.141486574433856 71.050852895039569 -0.073738879326182 -0.350837779865539 -0.933528483708311
-4.920999801528484 -14.022404028821200 71.378746469141817 -0.069276832055995 -0.321011591520164 -0.944538129802062
-5.756006831983925 -15.138166450370054 71.787355249512913 -0.058599589399601 -0.287396238508855 -0.956017515641402
-6.992059616917836 -16.098556048256896 72.127672224059097 -0.042375658002975 -0.255225578568945 -0.965952487264753
-8.342423400518522 -17.098851063348839 72.371892625083930 -0.024428641070458 -0.222153521032339 -0.974705624580255
-10.668308821857730 -14.323517931359422 71.856744827557392 0.006952597717009 -0.219215642479845 -0.975651660930854
-3.352412398758118 -5.957919704488004 68.920291171478581 -0.095977395983099 -0.213511500853604 -0.972214574290853
-3.219269433043589 -6.622636421844645 69.052111452898629 -0.098271434579351 -0.182867454004184 -0.978213790237974
-3.024437043929741 -6.674598759755309 69.070267783772977 -0.101376161422463 -0.160542306186847 -0.981809065867420
-3.193568462570936 -7.327605080439733 69.170162441857016 -0.099310819247312 -0.129491440872347 -0.986594814460947
-5.998719139014728 -2.696634418554720 69.074173646588278 -0.059863655305763 -0.084911671439097 -0.994588533428197
-3.765467897108821 1.136353079073759 68.662660863009847 -0.092660317571280 0.017506117455796 -0.995543872161952
-3.158923572772711 1.584740351956981 68.635187155167500 -0.101366455558848 0.033630445430147 -0.994280561424996
-2.717199600829129 1.660043359031623 68.582668239735611 -0.107671883039092 0.055126742523786 -0.992656943692801
-2.402453233339453 1.929218366506275 68.524232275248110 -0.112130105085474 0.073782091590654 -0.990950575202431
-2.341716679065570 1.767435624221181 68.549131292956886 -0.112715034197814 0.098461191054072 -0.988736929077699
-2.530006043521881 1.968151810393563 68.603466028719325 -0.109714342633839 0.117797413172298 -0.986958222251752
-2.611255912769749 2.634819719472313 68.743128928513087 -0.108171958239860 0.130235559577458 -0.985564572451801
-2.542484891460544 3.365943471383989 68.864485602635355 -0.108783613495349 0.141667474333705 -0.983918925598448
-0.008827585276769 11.707170367593267 70.135391940367370 -0.135028907714215 0.332822084263563 -0.933272015174549
-4.624686854037886 -12.947135446312249 70.959839087287378 -0.052231387629453 -0.353949395363703 -0.933804962327772
-5.303261884570831 -14.903626252949646 71.661439393188076 -0.043611505837365 -0.309842594394306 -0.949787135761273
-6.595122926969164 -16.770552358497099 72.301976464537177 -0.026637705891388 -0.265869620705090 -0.963640896501895
-3.774866347980312 -6.276008024783652 69.044172965767075 -0.068382058351351 -0.188097658226427 -0.979766893227857
-3.684103077373461 -6.436572184410897 69.041532007370606 -0.069967891158993 -0.164346270708125 -0.983918084756600
-4.278107320667172 -7.525755822297048 69.229451474239667 -0.061713752028211 -0.126991193732346 -0.989982146063773
-2.086630892065843 1.728241904998092 68.599319608142949 -0.094429242605343 0.008932057683963 -0.995491504979581
-1.922012436193722 2.069766474138714 68.501370396065340 -0.096902506373366 0.026673689554993 -0.994936389194849
-1.808885946280814 1.779038375544610 68.475833312935364 -0.098459788909000 0.053543921411339 -0.993699511144034
-1.649309350262096 1.828977899706784 68.482494179584165 -0.100600328114413 0.075362481534017 -0.992068581480286
-1.535237344212224 1.684402083070130 68.440929351163120 -0.102075381862441 0.099918263440779 -0.989745905295200
-1.296222799618129 2.154756490991506 68.478982895374415 -0.105257856633231 0.115411705019595 -0.987725124698895
-0.830192327442959 2.825788644410551 68.561120984074293 -0.111593469491980 0.127827531343818 -0.985498361133740
-0.156038119283320 3.511068404490761 68.606010449586606 -0.120866808203935 0.139953897658061 -0.982753336908560
-6.032725140097986 12.835835001789587 70.875056642458247 -0.035378158031524 0.200413247661423 -0.979072477447966
-3.225918246174415 12.150929391797387 70.574187423082165 -0.073421306987082 0.250551506062134 -0.965315106320369
-2.212701492184042 10.698689400354354 70.077564014478597 -0.086781565453773 0.290120503191155 -0.953047246218939
-1.955627911359106 10.609056618292502 69.973149888262071 -0.089765004579322 0.310813974059601 -0.946222446088737
-2.172147314623301 10.462930637163961 69.984020303181708 -0.086207580687028 0.331498447614929 -0.939508931442901
-3.538232101577846 -12.379055094412838 70.702576047159113 -0.046003133128173 -0.361710719156949 -0.931154695735007
-4.692324717339883 -5.345012098943448 68.865104245450453 -0.033246983406683 -0.201652280043448 -0.978892739807398
-3.999668656170507 -5.975865023349503 69.010088570386401 -0.043240355781336 -0.171058122616610 -0.984311632725523
-1.103880676953939 2.142920078963635 68.413411406324627 -0.086316722339392 0.002924565618703 -0.996263454293354
-1.102958586033254 2.278667029089770 68.454504852375436 -0.086254785595326 0.023680823089047 -0.995991631781979
-1.163431475915560 1.933157437993772 68.387726903325998 -0.085374923964563 0.051441765779226 -0.995020033512673
-1.109216326142577 1.739352088897914 68.390407468183511 -0.086013560985583 0.076861262325375 -0.993324727206732
-0.836250850312863 1.807317467990061 68.415694244989240 -0.089743577425571 0.098311350601332 -0.991100887222790
-0.341437756365694 2.462908147358940 68.394308266721453 -0.096743488700424 0.111255847471310 -0.989071703061771
0.430567916980710 3.205962108725155 68.399580522777995 -0.107627548203962 0.122786497782704 -0.986579843109447
-1.622814212421106 10.832656065308331 70.074221633377334 -0.073674373894277 0.288769839731531 -0.954559619035245
-2.092360674962690 10.587659151102908 69.979968963177797 -0.066895426317721 0.311608978042762 -0.947852755833371
-3.335880880247457 9.662970654411307 69.766280216710427 -0.049688975658902 0.342789825811331 -0.938097085070733
-2.737105659769847 -7.737510025851581 69.215801421778608 -0.039129699759779 -0.124176192152248 -0.991488345821209
-0.835898531899302 2.488508596795275 68.393115386149589 -0.067583537098478 -0.002111722783301 -0.997711384188907
-0.843187608835763 2.424565494188291 68.377710429574080 -0.067477204830988 0.021614653622344 -0.997486658345355
-0.891207341802789 2.034696183397345 68.370940300664742 -0.066718301387512 0.050051797356109 -0.996515672652161
-0.878282850538297 1.949382137303089 68.387975042223630 -0.066789861042655 0.073939587701104 -0.995023643856011
-0.556019484909494 2.138287471155993 68.430842333152597 -0.071291982514737 0.093679618761341 -0.993046616356880
-0.277934393809305 2.909546102544232 68.452038800645866 -0.075196517545860 0.104979051100330 -0.991627390998781
0.208604900999608 3.613700979853474 68.498904529263214 -0.082030846712897 0.117108062709818 -0.989725538639838
0.542458877357664 4.360546569104699 68.490403109711579 -0.086704296514606 0.128670177858002 -0.987889847248112
-1.250534601290997 10.474988479396693 69.921086576979420 -0.057555128922213 0.294122820584027 -0.954033109250640
-2.329254097111613 9.766962629775467 69.745542288305813 -0.042557894847342 0.322987493157443 -0.945445876213987
-3.905107849842650 8.425264861892959 69.253678290561226 -0.021059153537473 0.360013267853293 -0.932709471926750
2.228278315840337 18.296510778046429 73.275495993280330 -0.098414887045651 0.335439703643442 -0.936906993904620
-1.812700722849661 -11.820621393250406 70.418717194845456 -0.027398891207307 -0.387195767658024 -0.921590331041035
-2.170250002596302 -11.593214590776036 70.328156901067715 -0.022899353613029 -0.372649194159398 -0.927689709814902
-1.750607781586084 -5.600130542923971 68.854706152537105 -0.030799288732875 -0.176719809359566 -0.983779199207560
0.092189384082077 -8.286458974764479 69.144770712630077 -0.057473614835160 -0.094254578485490 -0.993887749211299
-1.593926213012297 2.444679451277154 68.450880724428927 -0.033761480318115 -0.001473637775984 -0.999428832302948
-1.277995058115240 2.377951924010028 68.422486661560200 -0.038374287368736 0.022314178361658 -0.999014259914735
-0.862626069557137 2.097263655531364 68.399356233806003 -0.044400057336876 0.049182878839805 -0.997802425000817
-0.691327437636886 2.116367576611010 68.418397406562150 -0.046816987947621 0.071572483229780 -0.996336062422632
-0.569452990232018 2.361144714246795 68.425759163253744 -0.048507006974386 0.090603362200221 -0.994705032174062
-0.613173617279235 3.070334790283976 68.525953868430634 -0.047746504026689 0.102739092499870 -0.993561749578521
-0.826166890313015 3.876424092521242 68.574332752118778 -0.044580736860428 0.113508842198274 -0.992536296889836
-1.247424313784686 4.515971877612055 68.661732030349398 -0.038383509256753 0.126537868087021 -0.991218883071307
-1.092121822640722 10.148288523779499 69.827283919909434 -0.038428624571341 0.298825091850615 -0.953533851152662
-2.346840293194504 8.761929077749407 69.383809430238102 -0.021156012845007 0.336885374063907 -0.941307955911520
2.870438679477425 17.655429420989119 73.005581010949143 -0.086780492758067 0.344164689192097 -0.934890267780115
-0.236268279898890 -15.028034191090725 71.752567046290167 -0.027154770262867 -0.380147091984400 -0.924527342433838
-0.921824335840038 -13.802205795821298 71.258900683292140 -0.018464169122971 -0.378737101729369 -0.925320097172992
-2.482822249045129 -11.993827464311217 70.508996402343442 0.001834484224312 -0.367364761056441 -0.930075140513698
-0.299300230664453 -5.555401174872150 68.789053606561268 -0.029235660937159 -0.177511065710394 -0.983684450258276
0.258866290208631 -6.923366436493293 68.992734456368041 -0.037345620465040 -0.136072371409194 -0.989994754719013
0.860778545819263 -7.212517485707736 69.015472084974107 -0.046101691063434 -0.109786110117857 -0.992885514098318
-2.129603523409260 1.739911055303863 68.482955618661833 -0.003126682385615 -0.013997095273819 -0.999897147301239
-1.764400629579796 2.665091664722850 68.426792953064123 -0.008466306742952 -0.004695917941295 -0.999953133904196
-1.342975587109053 2.745109504409695 68.472843546357865 -0.014611978579222 0.016953431093449 -0.999749504254021
-0.819461432507492 2.469085360438450 68.407299730461332 -0.022255636844685 0.043797118405045 -0.998792520520679
-0.541806063192455 2.341097000685965 68.425781419663949 -0.026263575817046 0.068359612291416 -0.997314989355254
-0.428173113617414 2.372375005947960 68.421034473148254 -0.027871044469411 0.090519060003667 -0.995504648234370
-0.690039091921234 2.759311139303103 68.431520776054754 -0.024019040059241 0.107435568056600 -0.993921870385690
-1.178418479338761 3.346292818435963 68.510472653382209 -0.016881522825746 0.121287225576764 -0.992473890386530
-1.872201363294914 4.078382311154611 68.654335392492342 -0.006807400558757 0.132855026546057 -0.991112103255267
-0.934575680891773 9.881765941132031 69.722761589486112 -0.019258908283562 0.302712642597622 -0.952887270595683
2.899366761217310 13.374058835779874 71.405728657866533 -0.068189839526822 0.364575252493434 -0.928673802287248
4.295444076311759 15.909283364199062 72.243416775530775 -0.085744466954821 0.349470058579374 -0.933015843672101
4.794312195192714 17.034719133124579 72.610672482662821 -0.091548828975153 0.352655263138071 -0.931264236022352
-0.443139330371348 -15.823550439488532 72.039962292594893 -0.004359905475547 -0.370183102005306 -0.928948578885814
-1.068920774681249 -14.882051803551882 71.704914266366941 0.003735498957035 -0.364714948661838 -0.931111729208764
-2.085083638987808 -13.534619619037688 71.133398187833407 0.017063651864780 -0.364764171979614 -0.930943570054095
3.504020890714589 -3.784358999548640 68.259729588244610 -0.060398462166520 -0.265988597610308 -0.962082164739177
2.375711313087121 -3.691333006450318 68.276426224944473 -0.044760546052561 -0.246737799426481 -0.968048011129228
1.409380109276253 -4.238806892926659 68.448310596692295 -0.031218898521822 -0.217934204176619 -0.975464024464761
0.436915548306272 -5.571528715070960 68.811553369397359 -0.017419784760564 -0.177280441654927 -0.984006197188580
0.228413671108040 -6.502586091407283 68.914693066550640 -0.014500411763723 -0.142232714470670 -0.989727029535411
-2.195036214415615 0.594364996114723 68.521612589914966 0.020624160677106 -0.020067323065131 -0.999585887526112
-1.732236781066585 3.081666715619052 68.419412472360833 0.013897220240634 -0.010783526459434 -0.999845279444116
-1.357178322122261 3.274044301518066 68.424655808579587 0.008416313343888 0.009238721298874 -0.999921902799643
-0.826731856828503 2.995131729097775 68.445301110087598 0.000664065656716 0.036116488113626 -0.999347366186123
-0.455867797483967 2.664687553952160 68.410012124155116 -0.004746640445165 0.063698941590778 -0.997957871978922
-0.402206254728119 2.473306369588808 68.395653338542857 -0.005519786591989 0.089128347610473 -0.996004854209158
-0.566795009167880 2.480926620378773 68.420508037248212 -0.003114814681658 0.111478916189125 -0.993761917752334
-1.048944850845961 2.903804556259239 68.464340910365195 0.003877949454526 0.127697311947570 -0.991805604959658
-1.640387651791810 3.535684582008894 68.575642448167628 0.012402737863315 0.140689554179170 -0.989976071144328
0.243088653620938 10.508186509144124 69.888215998480106 -0.014091878575058 0.274598479720125 -0.961455716033568
-0.781247432859002 9.571864856172557 69.574766395304678 -0.000000035113404 0.307199906221139 -0.951645006090886
-0.618328248441923 8.073562704853245 69.087017571490946 -0.002212107964129 0.346506276919847 -0.938045045098316
2.483690166605829 7.411316483106841 69.031612109026412 -0.043135687232208 0.407846921877304 -0.912030811322848
4.145877551308335 11.320163247773927 70.520502783810130 -0.064635019694455 0.374177971300355 -0.925101702529321
5.303695042906477 14.665583525958656 71.704554251099623 -0.079262016971558 0.348321824593478 -0.934017900887060
5.836406603791542 16.056450942501669 72.107539692559669 -0.085665457654259 0.348379275825221 -0.933430934531517
6.231477295138116 16.630631132827663 72.274900364599674 -0.090149470306442 0.358665880796662 -0.929102717117877
-3.263402355205626 -10.812937832055990 70.091259897150579 0.053649719527863 -0.364349544607296 -0.929715610785921
-2.440559707677261 -11.091632885711039 70.252354484515564 0.043043549868768 -0.342379654165517 -0.938575210213969
2.276693935920395 -4.959743831800434 68.643560458349015 -0.021202948191130 -0.228753809275480 -0.973253373860046
1.024751885263265 -5.321201901924173 68.715676085462817 -0.003470170803239 -0.202508879835768 -0.979274277974388
0.076769921401000 -6.150112345135268 68.920449881017689 0.010074075198041 -0.169006687471253 -0.985563418861972
-0.596897690279704 -6.760017346515559 68.944817096998861 0.019792441336776 -0.138535583132047 -0.990159659586369
-2.168044894710082 -1.691018224106426 68.543473072589308 0.042986370714329 -0.009513653634945 -0.999030361063829
-2.901242520698338 0.176399162249918 68.444317930103182 0.053719803365402 -0.013970082600291 -0.998458321372767
-3.021828880303879 2.051959374508644 68.432626639021564 0.055478904161982 -0.018536971181745 -0.998287770080548
-2.856583106243181 3.553828781262554 68.382614600746720 0.053114806632256 -0.017667962932728 -0.998432101047550
-2.372760376509067 4.112930950190534 68.417027131626384 0.046050669827844 -0.003017680686093 -0.998934547110912
-1.727084945166346 3.779037360034858 68.423192171932456 0.036623374874673 0.024670939406704 -0.999024560840012
-1.001710606761390 3.178935185895750 68.418442119415218 0.026009636860122 0.056197152649223 -0.998080847839755
-0.739656994901879 2.724579650412152 68.401817090778934 0.022148055845375 0.085469205615084 -0.996094613234002
-0.540756892548529 2.369501863310683 68.395477564176858 0.019201262055897 0.113097285935938 -0.993398366945198
-0.545396891278800 2.675252796747866 68.482722393028681 0.019201720817467 0.130894444973978 -0.991210340035152
-0.288509950983434 9.477629646707658 69.584945066881161 0.014716741656121 0.288775902507805 -0.957283602515905
-0.520458572814298 9.332795959442183 69.548074300875840 0.017790195063746 0.310215307374031 -0.950499853777174
0.236664528201922 8.264197683640823 69.155185677696863 0.007394235869628 0.343917886169167 -0.938970613410684
4.547026212672018 9.257792642468292 69.672682972106159 -0.049831629120974 0.384060571093446 -0.921962193623212
5.902829460464699 12.549800735536692 70.927277244929186 -0.067238800846327 0.358329385118331 -0.931170765983053
6.271813035485231 15.090957260814207 71.717412011340173 -0.071687727320606 0.343586535307296 -0.936380885381123
6.353310832772928 16.070158178089844 72.008352266068030 -0.072298700308459 0.349015074891789 -0.934324020579578
6.323846123814308 16.346825343242738 72.098751271959301 -0.071416004687725 0.363154550402748 -0.928987904547859
3.619677892606321 -6.165348324512902 68.913055337551171 -0.017907759896229 -0.253381076147187 -0.967200776667385
1.668365155815950 -6.315006737488035 68.960956365852439 0.009575852037205 -0.209538398731206 -0.977753528510597
0.506708756184560 -6.421971558911496 68.971189624527526 0.026157500267912 -0.186662088012082 -0.982075888146483
-0.333932421611787 -6.890771496491817 68.995023799726312 0.038290896919945 -0.158415251015418 -0.986629826965914
-1.394203593940005 -7.557159887180967 69.024759377376753 0.053636871774143 -0.126977903756910 -0.990454288669490
-1.786687126635684 -2.548461714540305 68.545360763926539 0.060149077131727 0.002981093847973 -0.998184953603124
-2.749245109594428 -0.416230787997908 68.479902612288498 0.074166231390628 -0.005315555730335 -0.997231725823336
-3.124966359800063 2.049026802672063 68.440154758406720 0.079637634480851 -0.018461872763537 -0.996652901680599
-2.618895336719810 4.756392411628464 68.364844102373866 0.072394534452514 -0.012401785727622 -0.997298965753083
-2.029389591750241 4.318749355968945 68.400699182316799 0.063794888282279 0.016776085252094 -0.997822015788721
-1.348969345559268 3.500972801923949 68.419537171334895 0.053821882313938 0.051454266113920 -0.997223978594008
-0.776161012236982 3.037268497632374 68.433943102743754 0.045393729262869 0.080845067690494 -0.995692464756929
-0.302464647123403 2.527497870557710 68.435281755749926 0.038401025208582 0.110706024226415 -0.993111039845450
0.173738863630657 2.842743170625965 68.483104883123829 0.031408469190467 0.128470210296339 -0.991215876148847
0.492848042339811 3.155734729744122 68.561629228417146 0.026696984821292 0.146048107172305 -0.988917196428922
0.645085444014458 2.815010779231242 68.501159636060009 0.024416624349368 0.172901239338346 -0.984636476010637
0.618123649802372 9.409524380131629 69.569050617376348 0.023877492046459 0.269776195099881 -0.962626963018906
0.330890537903722 9.341864326898133 69.585670928299109 0.027668171300292 0.290403926778033 -0.956504067742943
0.359858309457487 9.307251779386217 69.586758644369539 0.027091242530964 0.310309957949116 -0.950249332846778
1.005139973162804 8.931183892990017 69.448758492959499 0.018160494191252 0.334589148107584 -0.942189099076916
3.620404318430819 8.804376331130634 69.373640501461097 -0.017069853167948 0.373236711711049 -0.927579094818306
4.879908441191438 10.557719569970711 70.061586199974187 -0.033640515203494 0.367734851174284 -0.929322008223560
5.760228892571479 13.198934611214213 71.019338105012892 -0.044995112505880 0.350912885404791 -0.935326459963294
5.355043542066614 16.007672813213130 72.073382938028033 -0.039102630074881 0.350098392244992 -0.935896415245137
4.888701073949591 16.181180427180049 72.137363961039441 -0.032816906176010 0.365571496748162 -0.930204564294512
2.982868870697407 -6.853645982029736 69.033445732739736 0.012970657807313 -0.243926169658242 -0.969707061844918
2.329528099714287 -7.429794221352022 69.217491232130314 0.022241809850271 -0.214789896722358 -0.976406985923689
1.625817740727062 -7.374297854360821 69.206389600486915 0.032305316040132 -0.194354046545391 -0.980399342689997
0.778522767321190 -7.161842156133538 69.122349294204795 0.044497470944356 -0.175976779682266 -0.983388096375086
-0.123324447742874 -7.640935189985312 69.106431473634487 0.057573574049762 -0.147561291756175 -0.987375789021781
0.136581127394001 -3.574155159526122 68.735712695325390 0.054751908098853 0.017870808417228 -0.998340053672119
-0.628920715720549 -1.112508611744020 68.759803623275545 0.065812954806567 0.004807119601568 -0.997820397957851
-1.207230571116523 1.847089034017992 68.711748657725039 0.074205203469983 -0.015467117022464 -0.997123039583878
-1.224717227048487 5.036630465015645 68.528886721726820 0.074653968093241 -0.016446682162311 -0.997073864713034
-0.913318093035930 4.589709416589356 68.555174502362021 0.070123208104699 0.012789765508666 -0.997456343697978
-0.123518523556983 3.363263087103189 68.532659895122734 0.058529680806928 0.075969308829293 -0.995390848149931
0.458272709582241 2.903987559692327 68.500927308334056 0.049992421203679 0.105150970571374 -0.993198888043121
1.039828959009571 3.120453716971756 68.553449449644987 0.041452220404778 0.124342679436417 -0.991373093993420
1.514144776969639 3.317804976531185 68.629291821104104 0.034473342312010 0.143586179902995 -0.989037207394496
2.243215534812439 3.032126735878041 68.539804290893997 0.023904477004277 0.169780412018427 -0.985191954734713
4.336154927419470 3.707471533075804 68.826704252362859 -0.006116160583575 0.202891996968619 -0.979182020946975
1.250507488541604 9.500889746371023 69.610541368978730 0.036931477005401 0.248127663101502 -0.968023103448460
1.184254701526533 9.179289159930370 69.534643578646808 0.037633005647359 0.272735529380197 -0.961352738540672
1.169229476110232 9.266137636439193 69.600675626120079 0.037591272131435 0.291204674681511 -0.955921928665294
1.316037179023918 9.396611887484816 69.659084512054321 0.035341967812472 0.308836650464118 -0.950458241397930
3.668195747988927 10.317599590636945 69.974757500367858 0.003182969006700 0.353003749289518 -0.935616492851556
4.389900209388604 11.510774297039237 70.411054622922293 -0.006420419612221 0.355376021544680 -0.934701375586384
4.797271344803668 13.164060089514262 71.018709698525441 -0.011744053575902 0.351650058132144 -0.936057858159028
4.123440649044414 15.517457714447499 71.950812921572577 -0.002820291508173 0.356463995397383 -0.934304803552429
3.363510535882183 15.762579855329793 72.014384340777710 0.006998574650133 0.370969311988010 -0.928618753588365
2.628316412629141 -7.327009485135275 69.160418878244315 0.039865734559591 -0.237077059857751 -0.970672545659569
