ply
format ascii 1.0
element vertex 420
property double x
property double y
property double z
property double nx
property double ny
property double nz
end_header
-2.065835178207408 21.186360113742261 65.995531643705505 -0.275752173855532 -0.377897550739819 -0.883829270707185
-1.941125019241806 21.227092294807385 65.980849503491086 -0.279443207618484 -0.360121978885841 -0.890069465850413
-1.921900395288912 20.956900644730712 66.086296510600775 -0.281754988513536 -0.337860451756091 -0.898033652814252
-1.953130010508310 20.609479552766956 66.187858220361647 -0.283410266796601 -0.314212587991334 -0.906062398636025
-1.756038038333209 20.118892060896453 66.277975993475749 -0.288000716021314 -0.287999752802762 -0.913297175051340
-1.545796986633146 19.120954568098220 66.510348893426396 -0.292591171356436 -0.254188559502401 -0.921834357497248
-1.533422403603122 18.060764696278060 66.787766120524452 -0.294230778609791 -0.218930417833655 -0.930321299909799
-1.456239948498041 17.680258874071011 66.870444542811498 -0.296545111924772 -0.192670427669199 -0.935381795255441
-1.386001209678650 17.340868536764663 66.892790477351454 -0.298781412983865 -0.166766660159638 -0.939637455785243
-1.457367718948955 17.331862161469502 66.920903155390306 -0.298786219606075 -0.145181284869197 -0.943212165685557
-1.526831278112610 17.056582319549417 66.946487836228897 -0.298817970893613 -0.119683670195862 -0.946775390131932
-1.507425634078857 16.337647621063969 67.063146745360271 -0.299600855162504 -0.087567610441479 -0.950037494621905
-1.598275378293440 16.093791240192367 67.107686735411903 -0.298821833712311 -0.062083741169184 -0.952287309995912
-1.569584578261718 15.715571611530905 67.134154643395192 -0.299483957133053 -0.034573520970472 -0.953474714435381
-1.586110267570525 15.548158934999419 67.116879543883655 -0.299504473808521 -0.010012920184782 -0.954042353146889
-1.480951588179799 15.544562159055602 67.081940425386719 -0.300999266692540 0.012248583382294 -0.953545706117793
-1.352564397589678 15.327796928835511 67.057784385032889 -0.302566192336462 0.037508210071929 -0.952390063698805
-1.275067070450199 15.094170410754769 67.001330145392131 -0.303408300405134 0.062964092369026 -0.950778063649668
-1.342852842118088 14.591409127354620 66.980644702528181 -0.301932244763875 0.092114192840989 -0.948868744900527
-1.352963144352323 14.178455286778414 66.952892887062475 -0.301021433596830 0.119793623190922 -0.946063203151935
-1.571056130699308 13.866985206460887 66.948921314336715 -0.297183845937994 0.145902252199283 -0.943607065741180
-1.668041444625864 13.757375708189262 66.954743287170118 -0.294819617297010 0.168898360609787 -0.940507701744207
-1.740768074802308 13.722558867012156 66.991237247533661 -0.292565140931567 0.190532817638661 -0.937071440027048
-1.761923243913106 13.303786314498563 66.886428641036588 -0.291047872351120 0.217334777622252 -0.931695621131587
-1.765257496614737 13.063802862671505 66.830058711408441 -0.289549445646365 0.241232808556182 -0.926265540005661
-1.705440518863778 12.743566553670757 66.749185383488609 -0.288697939660138 0.265780397496614 -0.919790345645427
-1.751841334191987 12.744889094089423 66.752309302816514 -0.286400995558405 0.285639963089609 -0.914540475446178
-1.726657058232806 13.096477103703869 66.881682537566050 -0.284872641102044 0.300255517848049 -0.910326426263319
-1.703259357157336 13.097684099164162 66.870172190815524 -0.283339968124985 0.319419417185069 -0.904261963364645
-1.680163387293366 13.018035597432338 66.795199591483566 -0.281823009709884 0.339422469468866 -0.897423076601956
-1.622468310737432 12.582738503095417 66.662719566591932 -0.280338287208617 0.363334819364315 -0.888480868540476
-1.805105117758419 12.087676112714814 66.456571400543751 -0.275918286122027 0.387965778579928 -0.879404147155535
-2.332708270718495 22.606181448275564 65.172643891131614 -0.196594799636189 -0.703525426472551 -0.682936643520189
-2.187067936931417 22.536732422157215 65.218798256380737 -0.200388787101946 -0.694281742683171 -0.691243224762912
-2.048659336409568 22.629406307551832 65.084653666411370 -0.204193102429403 -0.686562199073141 -0.697809088307188
-2.043835144154830 22.757060272980063 64.940244818998067 -0.206637540469087 -0.679041222182233 -0.704417451122660
-2.050732857035158 22.674360317068178 64.983145268342298 -0.209011273657830 -0.669033150225751 -0.713238341217674
-1.936868580690170 22.498299578761873 65.134960147934081 -0.212641596395935 -0.657309907634164 -0.722998780640849
-1.886337171903573 22.166936509709544 65.410950771442927 -0.215644019626097 -0.643574565057927 -0.734376903238385
-1.747488635359939 22.367103448457115 65.249345993131158 -0.219569417371922 -0.635124883083159 -0.740544160630248
-1.691903764751789 22.352519920499610 65.196948025946341 -0.222779265532762 -0.624454815943273 -0.748615777080564
-1.579692468151837 22.192632058866423 65.302046662365953 -0.226565163495277 -0.611417416218117 -0.758180037877232
-1.606074259353740 21.917751837010300 65.506337338451473 -0.228809155109149 -0.596735961453684 -0.769124543130814
-1.746604377864930 21.902554149981576 65.589041644495822 -0.229585209708497 -0.584387138364561 -0.778320180900627
-1.827245395063578 21.988559334295282 65.554588065771867 -0.231096372855181 -0.572985598348270 -0.786309080793713
-1.781256346323634 22.209394114307024 65.366321014554956 -0.234175987070163 -0.562970099603577 -0.792607263423729
-1.859658996400984 22.133532143270699 65.403287828851688 -0.235798590212076 -0.549096262636640 -0.801805661748826
-1.868112419082347 21.997904236731543 65.504328824507340 -0.238147374964916 -0.533774981255191 -0.811400084534960
-1.873185855492597 22.037691175548453 65.533163692215183 -0.240407306372826 -0.519936725147573 -0.819676844180302
-1.899052542095074 21.768117169791040 65.657726712321377 -0.242633010465237 -0.502298915052345 -0.829954831403380
-1.962368449809919 21.611595133985290 65.758821395683157 -0.244240795993745 -0.485354846597540 -0.839510039521041
-1.957719823499271 21.682087528515986 65.749430734604132 -0.246566552976430 -0.470633133984229 -0.847177306205439
-2.015311248237499 21.680352218273740 65.770598637434063 -0.248126398124106 -0.454696348267314 -0.855385598093823
-1.912748862714835 21.567361778153810 65.772280316739170 -0.251818316099319 -0.436997660209450 -0.863493242966249
-1.956857239945030 21.444563651164756 65.855356745480591 -0.253435210701297 -0.418498392943514 -0.872140865388433
-1.932511359055816 21.209223547546188 66.001043942266918 -0.255790130035298 -0.397850401115288 -0.881071204675837
-1.927594895659404 21.141648620683693 65.969756569393510 -0.258130035075294 -0.379432978056346 -0.888481569958162
-1.792764960300278 21.189698923486716 65.954250640054553 -0.261850292222218 -0.361666652061955 -0.894780228463635
-1.817866870033054 20.989137741478398 66.049291432696705 -0.263439703839920 -0.340240368203887 -0.902682676406952
-1.682694573242735 20.754366296116810 66.066669741938867 -0.267259471661259 -0.318024456782553 -0.909633343548656
-1.531811541381192 20.278603252182076 66.177304604658588 -0.271128738165195 -0.291889857965102 -0.917218359038927
-1.369567340983764 19.187270561548111 66.463282536462430 -0.274978149435609 -0.256601429827800 -0.926575805610796
-1.371573703778896 18.169271827251151 66.676118071135278 -0.276569573639337 -0.221925702247247 -0.935017782514869
-1.294783307274269 17.645426210998984 66.795629010762809 -0.278819415472831 -0.193482273074201 -0.940651021134528
-1.259326077143356 17.372547124116352 66.882644547567722 -0.280265987323112 -0.168204000623376 -0.945070574361562
-1.339597457429733 17.265185357049237 66.865992286308014 -0.280320030404005 -0.145224001093362 -0.948857560469817
-1.386173086458275 16.910899782517873 66.956108994564488 -0.280375258408618 -0.118326216851869 -0.952569483490745
-1.280630752776901 16.345424221440730 66.966756888414210 -0.282600474215135 -0.088278051938963 -0.955166978867697
-1.311945789048735 16.014964965781655 66.998678040147809 -0.282637579810705 -0.061383268549531 -0.957260723534045
-1.375877383761086 15.798790233801959 67.045301033412954 -0.281965860378077 -0.036000861344229 -0.958748763526569
-1.377487597490692 15.542981950173591 67.089380467815133 -0.281942834298717 -0.009999026886509 -0.959379100068856
-1.382436166690887 15.550588617032931 67.089021833400551 -0.281872069688390 0.012235970012399 -0.959373971591599
-1.485437120686555 15.451319516497382 67.077429212721626 -0.280399154573337 0.035999291913379 -0.959208196950116
-1.468601241236595 15.077704547324814 67.034465531526109 -0.280399325028767 0.063631168062226 -0.957772046457010
-1.488727925234294 14.677433037268301 67.006612256416233 -0.279632321705402 0.091517857120692 -0.955735447959153
-1.495228444323274 14.224282317075579 66.973755858737618 -0.278823752392612 0.119959705262831 -0.952820541453089
-1.486521330571001 13.867688633017945 66.954409955444262 -0.277998421514660 0.146761113951256 -0.949303983488505
-1.582182628490479 13.765366529224101 66.957525216541413 -0.275703933467706 0.169787812219527 -0.946128659270050
-1.665274229172923 13.538966974313766 66.954515865892944 -0.273370983126876 0.194242057488198 -0.942092526606064
-1.695455215366785 13.130965694307795 66.847015374832210 -0.271799002166642 0.221035229167608 -0.936626248771644
-1.708154081350944 13.005537489116325 66.816373589701598 -0.270257854714193 0.243457584147270 -0.931498307398600
-1.698376831228540 12.849113635209715 66.794368356371848 -0.268820140939313 0.265864675880669 -0.925770871190185
-1.691793643854457 12.911508734972273 66.799804534215568 -0.267355055203880 0.284997123674076 -0.920487867358627
-1.626613068688926 13.213995504594930 66.901947261320132 -0.266490580852992 0.300373093708488 -0.915837744850378
-1.613257648133981 13.063473276377433 66.840101741826587 -0.264932576524766 0.321709189767749 -0.909018111543949
-1.658854060164881 12.887134167620548 66.745065741966854 -0.262598242667682 0.343117360253742 -0.901838477799849
-1.627991951732465 12.590206520656594 66.603536928798647 -0.261110101251074 0.365574023867785 -0.893407604678721
-1.641981434548491 11.915265302952928 66.328221906475420 -0.258839235734551 0.392428272748464 -0.882611069946446
-2.060661881365469 22.477644285623825 65.225022325846041 -0.183649617561595 -0.704392875913212 -0.685640936884748
-2.051754486795826 22.609209514632767 65.110682399288848 -0.185853221830985 -0.697266980485197 -0.692298590104081
-2.106341669473274 22.644058940164243 65.094941388269604 -0.187425065403106 -0.688935236529679 -0.700171468089380
-2.030883012081318 22.902874810055309 64.810264080887038 -0.190449091173345 -0.682844975623630 -0.705302688876777
-1.955079598792366 22.815729571247473 64.843607405034803 -0.193548842651774 -0.672800127422613 -0.714058004680484
-1.813864030714214 22.638620355170580 65.000314760272275 -0.197320258038599 -0.661068831219185 -0.723914854218424
-1.801998383759614 22.315122285568499 65.290335462008656 -0.199721207798134 -0.647418860939152 -0.735500005204558
-1.676213623602841 22.476234735450632 65.095445215190509 -0.203476198021620 -0.638974185019380 -0.741828435500746
-1.666390385875427 22.494376732629988 65.117639087896336 -0.205840069295133 -0.628247801966010 -0.750289654198598
-1.673552304268476 22.171104514844650 65.319531915529325 -0.208204473542399 -0.613732709745187 -0.761566187659197
-1.729392358298103 21.866611153638075 65.636326335177912 -0.209754420192081 -0.598242737759374 -0.773374883176363
-1.808668940045287 21.693781340599045 65.742822730645671 -0.211209403646225 -0.584406284597772 -0.783492107384646
-1.877723975895794 21.909345569631306 65.609604579894707 -0.212667462041973 -0.574516269963032 -0.790381936873807
-1.941440414722599 22.200590844582962 65.405622803457163 -0.214222501343045 -0.565331151438107 -0.796560988959410
-1.931506769492234 22.159799047845077 65.472006888145259 -0.216558917565003 -0.551446401474653 -0.805611011297468
-1.880904721005841 22.047152357979407 65.472625999508963 -0.219613603073213 -0.536778678088583 -0.814640114464464
-1.811918401526942 22.031420530409711 65.522040612941581 -0.222632637246803 -0.522209706375295 -0.823244636423440
-1.814732933569367 21.772204056313363 65.637977526191833 -0.224971645288008 -0.504647035635725 -0.833498127316722
-1.695402392679966 21.673290997625536 65.659363365316082 -0.228752694720021 -0.488387084745742 -0.842110598503477
-1.735177779305680 21.582138332001023 65.757257947244298 -0.230369866934554 -0.471532535042084 -0.851226640093777
-1.725364919515478 21.634106820936985 65.732101857214545 -0.232665426375075 -0.456230978974742 -0.858906335518288
-1.660297866457981 21.530112395484167 65.744188482684990 -0.235733440621844 -0.438581485232610 -0.867223169538122
-1.700565841743291 21.466741170147355 65.799510878890842 -0.237267919604214 -0.420798285697237 -0.875575660397749
-1.683931528878585 21.325613079481723 65.841210774928143 -0.239593481958940 -0.401656102557145 -0.883893284668119
-1.545795997114091 21.176902786555630 65.882893536034146 -0.243408499159371 -0.381758733070180 -0.891634775152715
-1.519331321669558 21.258248894446162 65.822962677332313 -0.245762296061270 -0.364674565349245 -0.898116559930854
-1.534986941441613 21.018362936264062 65.935276490696424 -0.247371313519703 -0.342606363385073 -0.906326824614384
-1.451622580808539 20.788134566488093 65.972169047151169 -0.250375673995173 -0.320341844155769 -0.913615414030621
-1.462969874258714 20.374444667398595 66.114799677814545 -0.251892933580668 -0.294935099224851 -0.921717547439210
-1.457361663276249 19.247651057424108 66.463845001459305 -0.253455172300151 -0.258959487553276 -0.932041018110494
-1.399636328644718 18.239458691049229 66.663056717210509 -0.255771105534706 -0.224230620553664 -0.940373208029489
-1.367447647886930 17.667975688905408 66.810472907895914 -0.257314100469090 -0.194952906770157 -0.946458038077573
-1.428485771815325 17.302712568530449 66.943033672110928 -0.257324296065169 -0.168215530469516 -0.951571196476346
-1.508588248038297 17.204240308258441 66.923063524934790 -0.257282823011588 -0.145224701045802 -0.955361363667877
-1.558052960954555 16.860508066099896 67.010758832236945 -0.257237684829619 -0.118316274024616 -0.959077699044467
-1.501517064288162 16.415964521550116 67.025672726020460 -0.258713343890254 -0.089822277536951 -0.961768872521459
-1.468635940444898 16.047739687667232 67.044662141140151 -0.259632227390472 -0.062224948794987 -0.963700763851375
-1.376733458634821 15.786594465833637 67.050554645407786 -0.261178485705153 -0.036042935776631 -0.964617388079525
-1.289212105950678 15.584892583926226 67.007322444210232 -0.262664332527708 -0.010671599480579 -0.964828256936072
-1.291792549928896 15.501394947624719 67.006014127548568 -0.262627177106855 0.013028870444568 -0.964809418683204
-1.434132255505855 15.463465420318723 67.066071739119522 -0.260352722550628 0.036042074229338 -0.964840623494742
-1.476841330729162 15.049007362816605 67.036801300064823 -0.259514283013811 0.064427808497677 -0.963587772029105
-1.450317024979618 14.614039076362943 66.990964384004201 -0.259448026618172 0.092979063332430 -0.961270833462537
-1.449079102698168 14.274840162307306 66.967185731322161 -0.258797350755715 0.119957203917170 -0.958454068002321
-1.328938973711701 13.929112766510412 66.919439170583672 -0.259625032467384 0.146764188182707 -0.954492072037993
-1.367819261916125 13.727190974865248 66.887307800818220 -0.258186648728982 0.171344122603195 -0.950779073217032
-1.403004467965751 13.453714373989929 66.856982613923364 -0.256592293447052 0.196603476659732 -0.946312563537486
-1.496219267379001 13.056524015482747 66.763959983580477 -0.254193526886836 0.223392896187699 -0.941000140712903
-1.572793856303228 12.997815856283275 66.763585981287989 -0.251836434493013 0.244999777642921 -0.936244369391221
-1.572374615749961 12.861524066165870 66.747234418773232 -0.250367703670013 0.267248374931467 -0.930534426582646
-1.464043673454320 12.873106365746668 66.707222119769781 -0.250411730097653 0.287188407959159 -0.924563023143033
-1.449080134805012 13.174141696006483 66.820198648894589 -0.248962823422759 0.302658795318650 -0.920008242446573
-1.393389800598708 13.084848446763953 66.764727399720002 -0.248090004095217 0.323264964481412 -0.913209238130488
-1.431677465477811 12.996406939883343 66.763797716223721 -0.245751154575997 0.343310835846798 -0.906500987321436
-1.474608535970120 12.610729521456662 66.606879484440014 -0.243383764173472 0.367071309860404 -0.897787835078043
-1.496725914167794 11.884490300220399 66.308112212805497 -0.241135500545958 0.394728703032218 -0.886590616563785
-1.718360022769762 22.407960766144939 65.175116322056226 -0.171363386873671 -0.705886436424601 -0.687283732173956
-1.768764304574148 22.538899559167845 65.079726587480792 -0.172799847417876 -0.698748261964457 -0.694183750266462
-1.955361463979241 22.647200070622773 65.026577809728494 -0.172800135275934 -0.691199418049237 -0.701700418794955
-1.941815727620757 23.043296339058649 64.630371193255002 -0.174985634593070 -0.686614765138756 -0.705648773809968
-1.915818724966716 22.958281722973730 64.684490040735042 -0.177360858192833 -0.676605145541639 -0.714666777601757
-1.747438531939427 22.658516401234245 64.958982357892779 -0.181263956509784 -0.663507279039381 -0.725879789450137
-1.584122338710511 22.392491981384886 65.166150513597898 -0.185199815319198 -0.650488775645811 -0.736590375422153
-1.439391713596507 22.491200860818211 65.028925114746528 -0.189014960393408 -0.641337345463902 -0.743612637104020
-1.432758678971343 22.472060141901366 65.008423105060587 -0.191322357063851 -0.630606388313102 -0.752151140866141
-1.366189754016297 22.238534298890677 65.202899284574713 -0.194250149128158 -0.616675842972864 -0.762874684504209
-1.418986572706210 21.844023064331061 65.516831535082957 -0.195832013102518 -0.600523879592132 -0.775255372560442
-1.464537036683829 21.706438013433953 65.668273239885693 -0.197395203484226 -0.586654563012008 -0.785411711994806
-1.573452628220007 21.860670054356746 65.592574104277872 -0.198226301194293 -0.576011607476203 -0.793042849767596
-1.699369200842774 22.152342336675268 65.405696570830514 -0.198867874332688 -0.566814476673698 -0.799482906378566
-1.700286243449717 22.148622256388322 65.378043784519392 -0.201068641163642 -0.553761862024327 -0.808034158750703
-1.794295740784893 22.074904577824597 65.468001278158937 -0.202003924805984 -0.539136437839698 -0.817634585714487
-1.891549963478461 21.968704250747756 65.548991877614071 -0.202918087044321 -0.523790915697940 -0.827325405498095
-1.820032785077107 21.742422793840447 65.701173411516791 -0.205847255767022 -0.506197231279037 -0.837491056870832
-1.748880192579794 21.706597724398584 65.703542992498853 -0.208830562732332 -0.490702301073755 -0.845932058613349
-1.897938869389929 21.591276959764258 65.774538691240636 -0.209010419178178 -0.473859109894190 -0.855436840827684
-1.760368084926210 21.700365037108241 65.692038064674719 -0.212792200539238 -0.459257122713775 -0.862439780289808
-1.683216330638086 21.547965458751790 65.732864958790017 -0.215845376664836 -0.440910741666690 -0.871210933847449
-1.653236720958439 21.486385339352694 65.773032127325294 -0.218150999853477 -0.423086446575113 -0.879436183010099
-1.570763644283847 21.409741227921366 65.773501181051572 -0.221205805419077 -0.404741551705401 -0.887272375300844
-1.424299859753383 21.212834825038733 65.842340040075356 -0.225002721885579 -0.384116480688681 -0.895448660955737
-1.441530133472824 21.299862257085504 65.795724035177855 -0.226617576669782 -0.367045279817435 -0.902176388799916
-1.395298630630911 21.006264044111919 65.916609846904933 -0.228946696634467 -0.344143031414725 -0.910576182441013
-1.309239054232091 20.779879414999922 65.955901614075358 -0.231865148862462 -0.321832002992344 -0.917966619541759
-1.310832127043938 20.534221690464122 66.044237740705853 -0.233402240058233 -0.298661506101501 -0.925378138443405
-1.311616061091311 19.456954812200077 66.326088673378166 -0.234971560712494 -0.263446252111723 -0.935619814831121
-1.231831880991287 18.323167827926945 66.625930971042564 -0.237302114263558 -0.226561999545257 -0.944646688941480
-1.300013681167002 17.545664432570568 66.845886212016097 -0.237344956839428 -0.194210656878408 -0.951813843258096
-1.375046622248256 17.076962092795107 66.933573938793046 -0.237290195592046 -0.165997598924569 -0.957151064475805
-1.435373070632195 17.148854587822221 66.940104755788411 -0.237241740986767 -0.145180149057572 -0.960541035382242
-1.493783969270652 16.959045691452047 66.946992630594607 -0.237220533199847 -0.120450621907157 -0.963959577114393
-1.516650118022344 16.545700570835951 67.045896450687238 -0.237301310860777 -0.092159967847050 -0.967054614895244
-1.338611885173371 16.134152703070988 67.037055612933244 -0.240285191660549 -0.063797178197818 -0.968603606602127
-1.259856293846003 15.779598308245944 66.992531127336377 -0.241842433147402 -0.036160780261195 -0.969641498441690
-1.200749796295007 15.585439005096470 67.020236992928261 -0.242697933184325 -0.010735113693682 -0.970042509667510
-1.200749367497274 15.498873857650461 67.018198448814516 -0.242697939390689 0.013133248550435 -0.970013004035526
-1.347335683656684 15.366485129544422 67.072194713371729 -0.240367524459050 0.037632174554672 -0.969952201205665
-1.445481683707794 15.010794446656728 67.056477582244526 -0.238741053551397 0.065315063622934 -0.968884230345969
-1.469908560116366 14.547686961037009 67.019297145161872 -0.237975500358916 0.094418910124953 -0.966670952620249
-1.422954826131296 14.227125325364151 66.983778777281813 -0.238034745703765 0.121264921229116 -0.963656722446868
-1.317402336401830 13.947810376502350 66.887491508027495 -0.238934533844141 0.147380393506926 -0.959786074157375
-1.153895383814838 13.696890972967379 66.793965529397425 -0.240452661464109 0.172806506893073 -0.955154662225046
-1.187188741528999 13.421779893263512 66.759350282004107 -0.238951463170597 0.198233947127104 -0.950581664274585
-1.164592085738047 13.071243681553041 66.706978283289772 -0.238052952461566 0.224323648086796 -0.944991900882416
-1.243340554755257 12.973878964054784 66.694022718115932 -0.235735157790624 0.246580282395281 -0.940014414631655
-1.309494750826907 12.854479503394138 66.696308652453965 -0.233420978690950 0.268695116948380 -0.934514623125318
-1.318164459127576 12.921869112475420 66.702589467861628 -0.231934608453440 0.287949308922198 -0.929134830308701
-1.332323148870621 13.086834222680146 66.711725272809474 -0.230389514625805 0.305628247850988 -0.923857156526928
-1.425158914076992 13.135982468242045 66.803631409713290 -0.227403313895849 0.324161753013855 -0.918262974703963
-1.430572101453549 13.022848800863173 66.716825019326834 -0.225838835156991 0.344918765521464 -0.911058651090084
-1.468371349360730 12.627526960119635 66.617442219204221 -0.223491516329937 0.368633658944607 -0.902308576719548
-1.446378010589179 11.967342965166967 66.333904426303675 -0.221985382096074 0.395524748553447 -0.891225371843392
-1.445875059356572 22.379542848906979 65.164415764787051 -0.158160217154492 -0.707377025572544 -0.688914428214262
-1.478995696791829 22.444623232945347 65.133614833315846 -0.159632705627293 -0.699533453458939 -0.696541704986802
-1.640497684520346 22.617714143448580 65.009302979776024 -0.159750647143564 -0.692675150313195 -0.703335529371157
-1.609164938911364 22.888953433744547 64.733891383021003 -0.161982321413121 -0.686729101628293 -0.708635920996398
-1.580403651728062 22.940885740977151 64.658466385855448 -0.164238909363819 -0.678211318721360 -0.716278568581538
-1.544302358800232 22.804483454356919 64.737649721382098 -0.166632443560935 -0.667375641376353 -0.725839777120553
-1.500668991671173 22.478420921789123 65.038582876176065 -0.169055018808312 -0.653676657840412 -0.737649800115414
-1.473048578541972 22.556530138048714 64.955893002288988 -0.171350561347769 -0.644294665955809 -0.745334400485244
-1.386691062284230 22.451097139388139 65.075362461531384 -0.174261038841116 -0.632119122164847 -0.755022188902789
-1.369208717892153 22.252569559443664 65.178821356259647 -0.176553261501795 -0.619012792760874 -0.765279104805209
-1.337101165381451 21.982295741075752 65.380431061278230 -0.178947260831475 -0.604305257583134 -0.776397471336875
-1.298051710543357 21.724723301714583 65.609323821278508 -0.181349157237506 -0.588986595867418 -0.787532394925921
-1.217445423299388 21.807225346869252 65.544224228311805 -0.184307785180204 -0.577459960525049 -0.795343092201332
-1.315547335153404 21.982917998370766 65.433605030209947 -0.185139279411687 -0.566822083159990 -0.802767820270027
-1.362950862771012 22.108581035685717 65.328256929251950 -0.186618274869483 -0.555326026990271 -0.810423730669296
-1.397961275456183 22.097503247649243 65.364514933243100 -0.188144524564922 -0.541447326659762 -0.819412246875305
-1.435289634417471 21.990046746628600 65.435442706614012 -0.189673892887147 -0.526052156931821 -0.829031327842570
-1.526096919623402 21.679482689226475 65.609807109345425 -0.190551326423058 -0.507724839150038 -0.840181932505384
-1.449704130498805 21.648569996206525 65.612258844745057 -0.193461982531383 -0.492236709302891 -0.848690452008085
-1.470046023066123 21.626631182049806 65.672286447141559 -0.195015066939991 -0.476176800914608 -0.857452493107998
-1.443567727086073 21.716608715566942 65.562368204062324 -0.197370825391293 -0.461652271673486 -0.864824801530963
-1.455242198022455 21.640386854347987 65.659407962896580 -0.198948872947140 -0.443900690011284 -0.873711350138344
-1.430489753366443 21.397563766377150 65.726009629614182 -0.201205968650189 -0.423939456756377 -0.883058036136158
-1.491386211908578 21.403999062651049 65.791722802772824 -0.202016304863760 -0.406308398518909 -0.891124513108124
-1.461796359754606 21.292858702391435 65.789490586336584 -0.204242908845776 -0.387100023266249 -0.899132029333560
-1.468406843710502 21.393561029019153 65.739500971777474 -0.205840473422757 -0.370157241684155 -0.905877097585469
-1.411666712131655 21.149269662515128 65.846065231450979 -0.208171363152413 -0.347848391816120 -0.914147788858128
-1.308239813410903 20.878286830768754 65.906048234104219 -0.211190518766108 -0.324829162550969 -0.921891848287931
-1.140601395860880 20.592944481933205 65.973660524056442 -0.214978856557374 -0.301002597971176 -0.929075630531706
-1.062541031096059 19.544278191203304 66.298321759858197 -0.217363776298398 -0.265802920969023 -0.939202744862703
-1.040774874841082 18.351636270721471 66.569352192444910 -0.218974991095324 -0.228130059437387 -0.948686791968718
-1.106615564708958 17.369826423964465 66.831655643284236 -0.218972870120095 -0.192694667582145 -0.956514321501134
-1.181099949714650 16.958597966363335 66.904133651487868 -0.218846486276920 -0.165155210095779 -0.961680805684747
-1.340280744846051 16.993551611015953 66.935924711726400 -0.217308080991691 -0.143693950829597 -0.965468407784890
-1.380532571642304 16.925703017892623 66.981556227597295 -0.217291647553980 -0.120491005320211 -0.968641449422954
-1.412318130345279 16.620162538211577 67.009407860288562 -0.217397881247712 -0.093720639962470 -0.971573261712173
-1.282172604741644 16.267321122861127 67.014142415482027 -0.219667064564392 -0.066064940056080 -0.973335401822542
-1.251319105139626 16.021628731520497 66.982320756897025 -0.220499503780887 -0.039871653303077 -0.974571813718856
-1.149126811711309 15.636262768467557 67.010484370202846 -0.221986369682652 -0.011530812868726 -0.974981585482363
-1.146571659029174 15.451677522700898 67.007789907709167 -0.222023546354879 0.013888730936987 -0.974942381895957
-1.247811884220843 15.122001268180419 66.977090676946972 -0.220550532748133 0.041419303532949 -0.974495717691648
-1.228772626714290 14.876301749841927 66.994762014442216 -0.220442663373794 0.067609996371214 -0.973053914516227
-1.258577164549886 14.579578231436809 66.969952022080932 -0.219626980360303 0.094449351436323 -0.971001189242872
-1.273005257346481 14.326784242599349 66.957653810115247 -0.218846634022466 0.120455036260313 -0.968295789011066
-1.283140640389213 14.108146245522004 66.900793381074251 -0.218132256737499 0.145833026892802 -0.964961681538645
-1.179304216977311 13.657309750434299 66.791729240571755 -0.218872298160453 0.174269660048379 -0.960065103357363
-1.271922053920468 13.331433141152859 66.756452825684093 -0.216606955003285 0.200548402158969 -0.955437996646402
-1.145482238895379 13.095258901079847 66.703631294041998 -0.217296992184318 0.225131583353555 -0.949788285548085
-1.169281529308781 13.007823484123460 66.677574468709651 -0.215851657043366 0.247356941718041 -0.944575357256122
-1.238661136830460 12.943054027291055 66.693366406152521 -0.213597927942114 0.268809970042374 -0.939210905592910
-1.210285646678749 12.966449274557352 66.677147750595495 -0.212739246161574 0.288776434627505 -0.933461399280351
-1.173797216218786 12.961121865489623 66.681307495298427 -0.211826627503563 0.308651482888477 -0.927288381244589
-1.342065548420736 12.984069947259304 66.708675669682052 -0.208097588777169 0.327872358789069 -0.921517829391933
-1.340518082009664 12.800090830558734 66.652225387880677 -0.206577977759363 0.349392008356524 -0.913920545562604
-1.342712553757710 12.588492178766543 66.543832627101878 -0.205029773325742 0.370971251139696 -0.905727951913732
-1.225454912019719 12.166551243608950 66.339644083551249 -0.204952006048066 0.394757644881748 -0.895634455022968
-1.220645495951763 22.349915867151537 65.140180963229923 -0.144389024950167 -0.708862383329640 -0.690409973113195
-1.302960943773737 22.280802441531094 65.256691901403215 -0.145178396657299 -0.699577060593236 -0.699653606748185
-1.453415704281790 22.457474173296980 65.123880275717283 -0.145247144980130 -0.692740255703406 -0.706409374939986
-1.479027052906050 22.857585819837240 64.737614776537882 -0.146687772440939 -0.688193785751698 -0.710543461492019
-1.501653029028315 22.988390652014289 64.602016089207510 -0.148196123191955 -0.680546936043700 -0.717560991771715
-1.520855354850044 22.855000461571152 64.695990866642461 -0.149779591288926 -0.669744243525252 -0.727329857972372
-1.536180677926772 22.584051078956477 64.966538541388147 -0.151342764950224 -0.656662129864170 -0.738843836476608
-1.560316397978934 22.473870233786975 65.063972004947104 -0.152841256495467 -0.645122773372304 -0.748636198423048
-1.651090372063644 22.388506558249325 65.127075230523729 -0.153599483384985 -0.633598283365343 -0.758261441733889
-1.610111467379019 22.238218783719155 65.268301286458978 -0.155818185948675 -0.620593062330380 -0.768495246514294
-1.439058519047661 22.040851234673951 65.388592446116832 -0.159636673585237 -0.606729799150577 -0.778713736407251
-1.262751888957640 21.867884031619809 65.455570169740199 -0.163606771606341 -0.592839826907840 -0.788526324174680
-1.203561469796789 21.828400388896569 65.492889283551634 -0.166120917430316 -0.579827674934802 -0.797623788619555
-1.055808971814404 21.930885289215389 65.384768447060210 -0.169781320381549 -0.568275277542364 -0.805131984325332
-1.083780094976310 22.092544296905629 65.326453578822637 -0.171207787794248 -0.556784799015872 -0.812821370894894
-1.233915878665337 22.001989789361886 65.368268503895408 -0.171257507503897 -0.542289414739674 -0.822552768389272
-1.255874507100279 21.955375000437336 65.398061788271235 -0.172807776839625 -0.527618275472941 -0.831718959535435
-1.270470723729913 21.673228045929044 65.611753263378475 -0.174351692694542 -0.509209737263058 -0.842797087519312
-1.292158736284987 21.706682552819984 65.601399729315204 -0.175834841880304 -0.494523583142857 -0.851192418960882
-1.255991025713257 21.768936127438465 65.536616639786672 -0.178106684680649 -0.479914616954233 -0.859045964605934
-1.265832408300835 21.780285184651255 65.552679612419254 -0.179673383507995 -0.463961031952511 -0.867443160148462
-1.330128631733581 21.623342481260423 65.636951532549176 -0.180542703650854 -0.445452137358189 -0.876913180127578
-1.241512155298061 21.380666050021283 65.693675126834449 -0.183491674689086 -0.425427169162570 -0.886195536582146
-1.239874777499280 21.446820709678551 65.720313376972229 -0.185011222936226 -0.408548493263682 -0.893789111613929
-1.248188361334407 21.347014702483058 65.725730853335136 -0.186572823365796 -0.389436869802155 -0.901958705274257
-1.191521017377564 21.396948719586156 65.687165992410357 -0.188905894321606 -0.371740676900320 -0.908913324926115
-1.184682846422296 21.052904767770706 65.845754439998061 -0.190423353597905 -0.347959776491994 -0.917966742506595
-1.175309730541773 20.892571745034346 65.888262933253117 -0.191999441908389 -0.326398676008349 -0.925526941048646
-1.051687371846391 20.669302558129672 65.951170599254752 -0.195051090767269 -0.303359532712907 -0.932699343788075
-0.978322192241006 19.616735046295737 66.221048880084908 -0.197428845333319 -0.268197138634426 -0.942916828706890
-0.949103736193806 18.477333851091373 66.483700087491371 -0.199035184985048 -0.231107059892442 -0.952352099806494
-1.006374130523090 17.246559368410026 66.799725111724300 -0.199070290166550 -0.191919283101856 -0.961008849255133
-1.063348797825908 16.846770760636190 66.925137924980405 -0.198937508332238 -0.164256110302240 -0.966148952287865
-1.170934569092280 16.892749106180759 66.939867445126666 -0.198070627711252 -0.142858164655668 -0.969721388456130
-1.217077095005736 16.842229698122331 66.920403975244781 -0.198090898458995 -0.119908121792736 -0.972821688839145
-1.244771265046092 16.790975812698967 66.920701511240736 -0.198206948476227 -0.096702023213802 -0.975378246775116
-1.010601862663085 16.401335212112656 66.914852673691186 -0.201973253574783 -0.068368889065742 -0.977001791118283
-0.814629227651650 16.168115441317124 66.914233749469119 -0.205014186356106 -0.042187131978915 -0.977849389879718
-0.718820527495698 15.734568632275478 66.889085130245064 -0.206595428879688 -0.013029378854402 -0.978339697678003
-0.713986785430023 15.362111460664407 66.885846531316773 -0.206666128632002 0.015271881517268 -0.978292328964703
-0.707161491044619 14.974201923853263 66.886877989244766 -0.206584663290302 0.043760749322618 -0.977449627199251
-0.803992455572903 14.744393988250899 66.864424903056502 -0.204989889683561 0.069891312771924 -0.976265511798168
-1.025634721916559 14.501303800617855 66.941528539986678 -0.201224920315763 0.096001837765868 -0.974829307412067
-1.210712469555437 14.362830757703545 66.913553073835473 -0.198183420997886 0.120561407796140 -0.972722097308264
-1.325996566206637 14.148573620832977 66.940292722661695 -0.195824329042349 0.145881158614617 -0.969727549220074
-1.286511480742931 13.705301881346118 66.848378146126720 -0.195715872950153 0.174331573822057 -0.965040827863819
-1.276118655400822 13.393163875216697 66.792854606402713 -0.195021292864729 0.200525889388865 -0.960081279379082
-1.054266780307207 13.182695791601525 66.666610050229536 -0.197359141544193 0.225040134655767 -0.954152140406892
-0.859471054455501 13.084262965277162 66.655109728457830 -0.198951187160969 0.247325181885373 -0.948287234719844
-0.786043687503929 13.032658379563081 66.579703436343664 -0.198976734784092 0.268911417132865 -0.942387875956740
-0.802521315225000 12.941774554688287 66.601927203558404 -0.197402343382188 0.290341282796453 -0.936340885752262
-0.928140243533491 12.879332681698500 66.618967718655725 -0.194324951214446 0.311086682283222 -0.930302579509227
-1.170997639092715 12.809700560823416 66.621177547325857 -0.189662260520284 0.331655561647615 -0.924138958903119
-1.349231424736942 12.632899222379802 66.597124343398107 -0.185798135415986 0.353137144122542 -0.916936862775687
-1.364478409028075 12.531227553340827 66.529574288263390 -0.184218553928822 0.373274872853070 -0.909246607739010
-1.254480838739054 12.290340767457071 66.404883052567172 -0.184211321150345 0.394684956385291 -0.900161082453127
-0.910260915126331 22.229269365500684 65.253203623351268 -0.131368685195643 -0.708936172512485 -0.692929846271119
-0.923339333863035 22.187804398871762 65.241753217051453 -0.132837908912576 -0.700382182079671 -0.701298002978087
-1.055283198757429 22.428367432979520 65.042062182560443 -0.132963206103780 -0.694231837226531 -0.707363373382930
-1.069555203387630 22.823799166170339 64.660727584059984 -0.134386428927175 -0.689639585849789 -0.711573980236161
-1.214151282714763 23.027381481670652 64.481632535102534 -0.134392457036254 -0.682800216969269 -0.718138239615798
-1.350585133546859 22.934581075322541 64.647136266522566 -0.134399739399044 -0.671998772956208 -0.728254323155599
-1.368592256670203 22.557876137888890 64.936155796521675 -0.135849672064429 -0.658160863700409 -0.740519509596552
-1.024310457720295 21.917905615268509 65.401202907095012 -0.151376306561439 -0.569799377735810 -0.807721414191614
-0.982539342436352 21.926605566320234 65.362952853387512 -0.153599483671333 -0.556798495895095 -0.816322628367522
-1.111984674537672 21.986818131149754 65.370991509505700 -0.153594160361761 -0.543740604962132 -0.825078777098393
-1.180832844657354 22.008292861237969 65.368481575955727 -0.154361744550869 -0.529908698319147 -0.833888016021887
-1.194733983439995 21.694727125678639 65.534168285576087 -0.155854494088459 -0.511456829473612 -0.845056973379447
-1.248081908375472 21.675146177039693 65.564037634102860 -0.156743103968015 -0.496045280409531 -0.854032012949106
-1.185276208409359 21.665473400756895 65.607671233681032 -0.159052909817102 -0.480068683770636 -0.862691271974767
-1.194683349944548 21.754142822796062 65.513426535070948 -0.160576147868413 -0.465462904514362 -0.870378989438966
-1.090424754318022 21.661797388038067 65.534916921471620 -0.163525489546371 -0.447760528343904 -0.879073332279968
-1.130111973329198 21.449285074144974 65.674744745098067 -0.164449019172700 -0.427737651565096 -0.888817766207850
-1.128486651519555 21.433609380744223 65.675725588800788 -0.165953343554287 -0.410041777696903 -0.896841807849253
-1.119777211486515 21.366345508027344 65.732731945178671 -0.167444207469551 -0.390989887209519 -0.905035549293386
-1.059875969300132 21.469257120878925 65.675738969251128 -0.169670609894487 -0.373983161472705 -0.911783131601432
-1.153345856372967 21.111867716157160 65.797056370505629 -0.169787262265533 -0.350246643093338 -0.921140366379751
-1.030796210471991 20.905890304284476 65.838990785643347 -0.172809335442630 -0.327967841787057 -0.928748635712277
-0.901362484616348 20.690274306621522 65.903566891759425 -0.175825699692993 -0.304949926240897 -0.935997257374797
-0.875781888483816 19.701585288910973 66.168951733341999 -0.177398371393053 -0.270561065192492 -0.946216956003747
-0.891851042860123 18.466850234584992 66.469455634195981 -0.178239087284418 -0.231953679104949 -0.956257454095756
-0.948614865306963 17.129710466719601 66.806214560620319 -0.178191520512831 -0.191062858932518 -0.965268235235086
-0.997042101902808 16.639921134765089 66.941497382372006 -0.178109437408978 -0.161971453309629 -0.970588623783848
-1.040704352253996 16.848339765324095 66.914921286548761 -0.178096110108337 -0.142835585120385 -0.973591172509075
-1.079022490022098 16.961975963107875 66.872703983203081 -0.178160717038661 -0.122181719420468 -0.976386391928794
-0.994973273622275 16.926135755343076 66.915416393103868 -0.179702745741959 -0.099018367051968 -0.978724826577503
-0.771244469103770 16.587354348265841 66.855609737081849 -0.183458066151873 -0.071397629392372 -0.980431291055607
-0.620757200933916 16.317772046011331 66.874422284972923 -0.185828457347220 -0.044569529517266 -0.981570854028665
-0.570258731897653 15.885996311249501 66.864559548455205 -0.186734115882215 -0.015311389911114 -0.982291164219997
-0.570258731897749 15.364003688750532 66.864559548455219 -0.186734115882213 0.015311389911113 -0.982291164219997
-0.567974131181206 14.826917312878846 66.859542355967747 -0.186603197839701 0.046115260342304 -0.981352449082163
-0.715882954798989 14.607318357581246 66.841174048636844 -0.184269937603769 0.072208999008927 -0.980219593028844
-0.938624031284983 14.323777891804617 66.905036894471991 -0.180526926557189 0.099019630074527 -0.978573012936551
-1.076369046079355 14.237550206867528 66.865884236236170 -0.178199459102360 0.122918671238611 -0.976286819042724
-1.144248695021055 14.030515865071115 66.878292326694549 -0.176589572311639 0.148235619597394 -0.973058232601404
-1.261840129801014 13.653820547306060 66.823050972266259 -0.174270115560374 0.175836297704711 -0.968871262465800
-1.258270376669330 13.460283273451953 66.790944091469527 -0.173566906645455 0.200425389440567 -0.964211694694233
-1.090877442411500 13.347274107311442 66.765634768778540 -0.175073568254897 0.223452188606758 -0.958863058577891
-0.967143539083668 13.219170588418475 66.703934608033137 -0.175940941004663 0.246457771275633 -0.953049501472112
-0.845298779310010 13.012123305908055 66.578843764597607 -0.176772583094385 0.270350059617512 -0.946394367655972
-0.761221280478098 12.913895112236467 66.576883245488375 -0.176761664824536 0.291964632045228 -0.939953173026802
-0.736686025967062 12.755078517246112 66.527720018813582 -0.175915916057116 0.314137869622127 -0.932936755277150
-0.922136863599563 12.787694086551927 66.545931395909363 -0.172156472160474 0.333348041697285 -0.926952659087747
-1.058712869490574 12.665908013009343 66.528886515429008 -0.168982954935842 0.354145471961712 -0.919796578396641
-1.134190198709319 12.402422877982747 66.469597591427529 -0.166557792421372 0.376269396983645 -0.911416393684732
-1.148954675415608 12.331583234825352 66.438934839829543 -0.164997896431176 0.395412304707938 -0.903562285323399
-0.764250263407448 22.332550786601274 65.054407843671058 -0.116624078958720 -0.711847128570226 -0.692583922534558
-0.745072423365345 22.273545288861101 65.147093610422232 -0.118187157529722 -0.702663384909651 -0.701638057193562
-0.855895351768785 22.380825339270075 65.076418989935860 -0.118370433128814 -0.695075464087066 -0.709125193308661
-0.915696062495014 22.630829005458750 64.845177952674703 -0.119120674137226 -0.688880571236727 -0.715020156055515
-1.052177613498518 22.703257287508059 64.784768305701306 -0.119033281849141 -0.680554706924540 -0.722963601224208
-1.317131781178103 22.643330555632268 64.849908485182141 -0.117492581258578 -0.670530673846518 -0.732519015985340
-1.500022404496416 22.569351268228026 64.971783602964479 -0.116772112850001 -0.659645769263262 -0.742449818340355
-1.172319690505013 21.908959655984766 65.409021622557049 -0.130638304341571 -0.571382505338595 -0.810219517187626
-1.098208531648165 21.944337766956750 65.424794762849729 -0.132939560249741 -0.558274975177829 -0.818935971496429
-0.988234556131520 21.919255677122088 65.377040931268539 -0.135846505176206 -0.544537355071808 -0.827662247515743
-0.980376852576079 21.999605784055781 65.324557862955672 -0.137407205981112 -0.531424898068532 -0.835886856851640
-0.905549710683388 21.725576489068466 65.525201595129502 -0.139759600482314 -0.513045450291695 -0.846907090540642
-0.899613303133796 21.623222703156657 65.525158428304351 -0.141371183808522 -0.496922418700597 -0.856202253081202
-0.889549635956321 21.663895080083527 65.552088984120473 -0.142846594961663 -0.481567670229304 -0.864689209657308
-0.946174506821654 21.752154564140191 65.468412856041155 -0.143576909145386 -0.466925290738907 -0.872563146155420
-0.883582254297680 21.726545962275601 65.467453119227756 -0.145810358574920 -0.450077997070052 -0.881004617403146
-0.969036323762928 21.516677153000970 65.617008781562220 -0.145956736948229 -0.430046532966748 -0.890930193911232
-1.003131219391037 21.338531147356068 65.702162517411040 -0.146809409242485 -0.410087424953501 -0.900152932147021
-0.940389881587688 21.302148902157388 65.670955222297820 -0.149016454008189 -0.391724027404360 -0.907935230503219
-0.925518747777160 21.414783940095166 65.619925800230774 -0.150470253063193 -0.374787870348462 -0.914818427439436
-0.998537532392520 21.192927000230640 65.750471166071861 -0.150585931557908 -0.352566048605572 -0.923591391572859
-0.970448030497797 21.038751499250115 65.796315462265525 -0.152134493552756 -0.330962512374382 -0.931299581914586
-0.940665596365470 20.774918602071143 65.901391425274269 -0.153599606721313 -0.307199210518329 -0.939167613300189
-1.014446123711769 19.792837996495980 66.186656513043246 -0.153598850283946 -0.272802238434438 -0.949729609887261
-0.977113217001534 18.513834051671680 66.494199152888569 -0.155069103262574 -0.233435600572711 -0.959927806451401
-0.917289509499449 17.084416329307093 66.832067777895901 -0.156610997397427 -0.191070992160462 -0.969001997649643
-0.957272018530956 16.592020189972260 66.903156516977816 -0.156712945703641 -0.161981508518600 -0.974270518668674
-0.932562012518225 16.815465411976771 66.923892426178696 -0.157485588954326 -0.142856116396215 -0.977133777575978
-0.974291760870086 16.931708064561757 66.881219878686451 -0.157427959547691 -0.122167883729843 -0.979944613607127
-0.953828600871763 16.902750072725706 66.873956844494430 -0.158144871443047 -0.099111210117904 -0.982429217636175
-0.913785108698573 16.679731096110761 66.901748110656840 -0.159013464183980 -0.073009287654316 -0.984573187794803
-0.773114008928758 16.465127887294344 66.865274054248545 -0.161368656804824 -0.046939081340032 -0.985777296981403
-0.675665086282873 15.940449839250956 66.855219878862272 -0.162949460140433 -0.016182674328626 -0.986501695128556
-0.675665086282882 15.309550160748943 66.855219878862272 -0.162949460140433 0.016182674328627 -0.986501695128556
-0.673281923086394 14.685112974289584 66.844029373200314 -0.162840455210285 0.048409804300611 -0.985464092189301
-0.808899158880166 14.517763360372800 66.880808953980193 -0.160557039604413 0.073781996168171 -0.984265032435323
-0.846992064959087 14.347088629978689 66.856655164315072 -0.159714381299264 0.099113579697683 -0.982175042813502
-0.969251825747710 14.163006469120033 66.860867503547340 -0.157501804750949 0.124443128657582 -0.979646410308386
-0.937356011844903 13.905467715621221 66.845178226966311 -0.157415593344358 0.150580848070941 -0.975984497400589
-1.055547383595227 13.639151869343085 66.803281827669196 -0.155146262424047 0.176663729530873 -0.971966853305240
-1.014774476753734 13.460379266272190 66.766891683435546 -0.155062661498570 0.201120827665186 -0.967215582839860
-1.069918066707261 13.516879584926537 66.756412101641189 -0.153596306552614 0.221972745060918 -0.962879159117859
-0.912300529505167 13.399844664226048 66.697595312575018 -0.155064564076551 0.244926177870196 -0.957061204083441
-0.738710757002018 13.137202904151057 66.617308731005238 -0.156611599529282 0.269491471913407 -0.950182694779707
-0.664700723788174 13.000372174029334 66.544734459729426 -0.156728332287138 0.291980403033754 -0.943495455263426
-0.589838322161775 12.688020722075262 66.436030119066288 -0.156723161214452 0.316409368792068 -0.935586961259911
-0.617333124685235 12.594262101290404 66.439221300264279 -0.155156070933819 0.337169642190211 -0.928570528305581
-0.756507855378713 12.473499211990461 66.413532856088025 -0.152063284014722 0.357993491302671 -0.921258605300153
-0.943247945163728 12.320354351883726 66.409241431170358 -0.148239125805974 0.378640743542664 -0.913595287263315
-0.794888897372040 22.391685255468914 65.069207426389653 -0.099790652410489 -0.713388074357413 -0.693627624202000
-0.692299519310707 22.364343437439388 65.036523916902837 -0.102125288450300 -0.705008022417604 -0.701807747026037
-0.659341837510418 22.460266948767540 64.958485574911847 -0.103689356507147 -0.697308843200868 -0.709231199638736
-0.758042481032602 22.510275550313530 64.928493691916728 -0.103836123289884 -0.688918633856077 -0.717362652656245
-0.749689956763191 22.503477126576243 64.918860713206030 -0.105183495954789 -0.679690563866446 -0.725918156247412
-0.936391804851521 22.516256808147389 64.899388928556832 -0.104356063329355 -0.670458481133530 -0.734571464952539
-1.107583409293806 22.394881504114842 65.057803494479572 -0.103614640910411 -0.659007574763711 -0.744965115017515
-1.058901269064993 21.993944531959002 65.344683105541193 -0.112940393928430 -0.573714395182607 -0.811231323470406
-1.040860106394696 21.815545311856681 65.446860801935173 -0.114443062066608 -0.558340179684327 -0.821680612704773
