ply
format ascii 1.0
element vertex 423
property double x
property double y
property double z
property double nx
property double ny
property double nz
end_header
1.055369800490176 28.343334329001635 88.447572823649850 -0.003090066514375 0.076799861019032 -0.997041740769359
1.051596609637605 28.322004178910866 88.431840828553817 -0.003043415621272 0.094526013971509 -0.995517739823864
0.918792340585358 28.096124357353482 88.425247513072023 -0.001545245934000 0.114426757023329 -0.993430485485586
0.912636269707862 27.988067895505900 88.398425548678816 -0.001473105389706 0.132926136388542 -0.991124851986532
0.711909585324568 28.591130825778968 88.485681850899041 0.000771220272221 0.177289724994117 -0.984158401188956
1.861807146531030 -28.653947217344204 88.495689654546794 0.005360280874975 -0.176591066429271 -0.984269710316392
2.073168235250167 -28.312151024889310 88.463663681713797 0.003017528323295 -0.163450417922501 -0.986546935225982
2.212099563546676 -28.218143887388454 88.452142005296167 0.001472105965038 -0.147468479398541 -0.989065660352188
2.475136269707918 -27.988067895506425 88.398425548678887 -0.001473105389706 -0.132926136388537 -0.991124851986533
2.481292340585252 -28.096124357353659 88.425247513072037 -0.001545245933999 -0.114426757023327 -0.993430485485586
2.614096609637806 -28.322004178911108 88.431840828553845 -0.003043415621274 -0.094526013971506 -0.995517739823864
2.617869800490249 -28.343334329001340 88.447572823649821 -0.003090066514375 -0.076799861019036 -0.997041740769359
2.613328945484440 -28.360398682901945 88.434876950126295 -0.003042995208087 -0.059073838097957 -0.998248977877032
2.480519398521044 -28.563316118602401 88.461944522635733 -0.001544893239818 -0.039172414790439 -0.999231272140921
2.474144885433252 -28.639726364159056 88.450995300863553 -0.001473888159074 -0.020673941854199 -0.999785184818171
2.542494001928842 -28.500342403695090 88.468845588969685 -0.002246456447709 -0.004588081793884 -0.999986951384307
2.750780361630214 -28.423766239900505 88.462471089192746 -0.004600772709735 0.012207711539511 -0.999914898713606
2.894032592237073 -28.162394155882946 88.436238282604407 -0.006219990869640 0.026914707311890 -0.999618382305916
3.031189177855459 -28.305690990794158 88.432942056195984 -0.007765042108387 0.046164475215115 -0.998903671706721
3.357448392921517 -28.450769776880549 88.454612407287883 -0.011434838047620 0.065364013275584 -0.997795966241262
3.495957594008623 -28.596076631516468 88.444900433967064 -0.012979695775697 0.084514212363597 -0.996337731598142
3.641530715640212 -28.613149884050323 88.415309532400556 -0.014599850552820 0.102170096569359 -0.994659798992019
4.053877959773136 -28.302854312902291 88.451945430336664 -0.019199819914372 0.116022278128464 -0.993061024254369
4.469339531089197 -27.998488187193793 88.528966914545492 -0.023800129113080 0.129797762705115 -0.991254808135097
4.819642455755536 -27.971984465356591 88.487171479091558 -0.027666694108342 0.146700575096174 -0.988793959985379
5.377715363845095 -27.902537187017309 88.478731428325489 -0.033812162753205 0.162947589290285 -0.986055181414527
5.874234222405796 -27.983393194638161 88.478234402063279 -0.039214530960855 0.180658038372078 -0.982763905387796
6.504613070899772 -27.660355604520273 88.520067812282122 -0.046062914545553 0.193779537302339 -0.979963110951867
7.687856534158146 -27.148666815161764 88.610561940064414 -0.058927186394951 0.204597164132338 -0.977070922263363
9.312910138540612 -26.636770158951197 88.640605177651707 -0.076542121236031 0.215326964952786 -0.973537673560151
9.381986025327944 26.554974010209563 88.591577107673970 -0.077351753218243 -0.214569996815140 -0.973640807865414
7.758813847978367 26.919676532571277 88.592518872899859 -0.059749132163504 -0.202205964168281 -0.977518689980137
6.577579148913941 27.371185170786983 88.573300705141435 -0.046870686913694 -0.190578270461497 -0.980552426714729
5.943475623212463 27.703263821844331 88.526483005464840 -0.039983623494529 -0.177546526955952 -0.983299822342162
5.377767171110248 28.043269276612456 88.455358383098144 -0.033812740121590 -0.164515984359885 -0.985794699466156
4.819675733098635 28.045647313772548 88.476210356687332 -0.027667065963780 -0.147523715652839 -0.988671475658591
4.467913047428904 27.990696101873567 88.469492141984873 -0.023800146189680 -0.129797715427155 -0.991254813915797
4.053864441017796 28.229551136416838 88.460479134116881 -0.019199668137620 -0.115199294222711 -0.993156833211147
3.641504931850265 28.473690371810470 88.429523872592881 -0.014599560488809 -0.100601196667909 -0.994819708320316
3.495957594008460 28.596076631516702 88.444900433967035 -0.012979695775695 -0.084514212363599 -0.996337731598142
3.357448392921327 28.450769776880449 88.454612407287897 -0.011434838047618 -0.065364013275583 -0.997795966241262
3.031189177855341 28.305690990794325 88.432942056195984 -0.007765042108385 -0.046164475215117 -0.998903671706721
2.894032592237550 28.162394155882584 88.436238282604421 -0.006219990869646 -0.026914707311886 -0.999618382305916
2.750780361630495 28.423766239900282 88.462471089192746 -0.004600772709738 -0.012207711539508 -0.999914898713606
2.542494001928836 28.500342403695178 88.468845588969685 -0.002246456447709 0.004588081793883 -0.999986951384307
2.213355114566495 28.639726364158541 88.450995300863553 0.001473888159077 0.020673941854204 -0.999785184818171
2.206980601478654 28.563316118602501 88.461944522635747 0.001544893239821 0.039172414790438 -0.999231272140921
2.074171054515711 28.360398682902030 88.434876950126309 0.003042995208085 0.059073838097957 -0.998248977877032
2.069630199509947 28.343334329001721 88.447572823649864 0.003090066514373 0.076799861019031 -0.997041740769359
2.073403390362121 28.322004178911147 88.431840828553845 0.003043415621275 0.094526013971506 -0.995517739823864
2.206207659414636 28.096124357353343 88.425247513072009 0.001545245934000 0.114426757023331 -0.993430485485586
2.212363730291909 27.988067895506184 88.398425548678844 0.001473105389708 0.132926136388539 -0.991124851986533
2.212099563546820 28.218143887388422 88.452142005296167 0.001472105965036 0.147468479398542 -0.989065660352188
2.073168235250175 28.312151024889594 88.463663681713854 0.003017528323295 0.163450417922498 -0.986546935225982
1.861784486372496 28.512948779431291 88.470276563661770 0.005360532906545 0.178159283956943 -0.983987059989565
2.873750439560435 -28.509641454405106 88.464965405913162 0.011483701039257 -0.178196068797630 -0.983927988053756
3.082305518694864 -28.302488196843854 88.458638810536812 0.009188630325696 -0.163558177798106 -0.986490897853650
3.156944488042120 -28.211817310185104 88.448122576138900 0.008378681784165 -0.147539222741976 -0.989020715376707
3.227789528247940 -27.856623533848275 88.378190694722619 0.007606911893173 -0.134399893106309 -0.990897978413753
3.229158121718209 -28.027332712928228 88.414811128329944 0.007606919203256 -0.115199610010918 -0.993313235909785
3.230528523606749 -28.191076733286188 88.417142507222636 0.007606906184771 -0.095999924200313 -0.995352274087838
3.362173626884265 -28.212588769045496 88.436155782632000 0.006133202267115 -0.078273714699070 -0.996913040047706
3.499793652593834 -28.291947527944892 88.430276397764160 0.004588061264321 -0.059846511706232 -0.998197047045537
3.639002210342810 -28.432827535964876 88.456434669215852 0.003018725738814 -0.040646362408620 -0.999169035007521
3.775855114566443 -28.639726364158982 88.450995300863553 0.001473888159077 -0.020673941854199 -0.999785184818171
4.036658719603385 -28.363672710056200 88.468240083378447 -0.001474044530388 -0.006132895783246 -0.999980107193155
4.173327291398027 -28.215479946864470 88.465301992477023 -0.003018845839245 0.009853396031021 -0.999946897168272
4.380491955432053 -27.954103926564105 88.442041475655259 -0.005360483276049 0.024560347310547 -0.999683977344357
4.719759264843444 -28.038418555401396 88.443819652946317 -0.009189080140556 0.043145471087783 -0.999026540753940
5.192041315103912 -28.114680193778554 88.472452099586619 -0.014504132150072 0.061572816624688 -0.997997203605038
5.542104553970953 -28.187666696690549 88.470973916752314 -0.018428011197149 0.079913447073229 -0.996631451129349
6.089451623266835 -28.139630509710955 88.445245862466763 -0.024560711252861 0.096843070195871 -0.994996578495520
6.572424930575494 -27.955580516879206 88.468184266812557 -0.029933478506517 0.112123391903887 -0.993243339697009
7.054361204801850 -27.645730092106579 88.483478588385879 -0.035272954675651 0.125932550051614 -0.991411524799842
7.610282809252505 -27.480483648455230 88.455175109464221 -0.041418235594907 0.141303071099801 -0.989099576310681
8.374674283559713 -27.332968000155446 88.449371426066122 -0.049831875583358 0.156704784210499 -0.986387547965497
9.158318613856688 -27.280236813746086 88.458220666148094 -0.058375776523916 0.172963063396089 -0.983196850796355
10.483928872105933 -26.665229025480834 88.442251510189891 -0.072915185368650 0.183006086082262 -0.980404073940693
12.249912442748860 -25.723166745243240 88.543160543371400 -0.092123909050998 0.189129035500091 -0.977621293401473
14.517245304945821 -24.626018072883770 88.516596269286410 -0.116771159953184 0.193625707856100 -0.974101422573857
14.498866500147786 24.764646657826109 88.491129604367686 -0.116568906131262 -0.195151278285750 -0.973821168750607
12.308712518479478 25.569061931598554 88.505917928975094 -0.092834631736598 -0.187551783577489 -0.977857893370623
10.622436503367165 26.309220964227386 88.497561931845425 -0.074450576470094 -0.179059649309693 -0.981017203545565
9.492828333650492 26.930639349476291 88.498528038274614 -0.062093790526292 -0.169077351889255 -0.983644859822992
8.576207011914462 27.408622658283242 88.426906217965481 -0.052079368929569 -0.157548485092932 -0.986137015924674
7.678334314226494 27.553047268785207 88.441902076221851 -0.042179182759997 -0.142114472422959 -0.988951158182062
7.118884341887142 27.576744679306643 88.489895068334832 -0.035995902990332 -0.125159604249934 -0.991483418132603
6.631548823863639 27.752086158677479 88.489117861615952 -0.030597269831185 -0.109838735361822 -0.993478363776984
6.020806283100194 28.002339872147623 88.460168370310029 -0.023788460829117 -0.095298569829538 -0.995164454610305
5.542104553971100 28.187666696690584 88.470973916752300 -0.018428011197151 -0.079913447073230 -0.996631451129349
5.192041315104243 28.114680193778092 88.472452099586647 -0.014504132150076 -0.061572816624682 -0.997997203605038
4.719759264843348 28.038418555401211 88.443819652946317 -0.009189080140555 -0.043145471087781 -0.999026540753940
4.380491955432079 27.954103926564223 88.442041475655245 -0.005360483276049 -0.024560347310548 -0.999683977344357
4.173327291398026 28.215479946864498 88.465301992477023 -0.003018845839245 -0.009853396031022 -0.999946897168272
4.036658719603841 28.363672710055745 88.468240083378447 -0.001474044530393 0.006132895783251 -0.999980107193155
3.707521415424694 28.503061774883715 88.447936531901703 0.002246282181251 0.022218698147579 -0.999750610736992
3.567330124720201 28.361153114979086 88.453244271607701 0.003828305379869 0.041455968429017 -0.999132997533127
3.358517586519662 28.155103421134946 88.421203410683262 0.006182779246871 0.061391201928717 -0.998094631568837
3.218528991223617 28.212583101437794 88.435154943132758 0.007752463180886 0.078273778588234 -0.996901757898013
3.088880052426553 28.328297072111155 88.429073872984134 0.009201507909191 0.094455171990193 -0.995486590937568
3.157098703039921 28.099439645510699 88.422562789366594 0.008416484630492 0.114389510779567 -0.993400323439688
3.158968731716998 27.994384218763031 88.396211464567443 0.008378531991064 0.132855317650375 -0.991100027632778
3.156944488042203 28.211817310185467 88.448122576138957 0.008378681784164 0.147539222741972 -0.989020715376708
3.082305518694709 28.302488196844095 88.458638810536854 0.009188630325697 0.163558177798103 -0.986490897853651
2.943053608564208 28.370820555157071 88.440493400194114 0.010712895022086 0.179740067232154 -0.983655804695742
3.608860991237913 -28.358924307924159 88.485013389751543 0.020672324205425 -0.179752425164786 -0.983494646990681
3.747024800272039 -28.299157413378055 88.445167282781199 0.019200682499475 -0.163595322701260 -0.986340663352082
3.751657467003210 -28.209622573701360 88.434300572824057 0.019200408509413 -0.147563764131708 -0.988866158703165
3.756302121018757 -27.856613709553621 88.364201947485697 0.019199998643135 -0.134400003256490 -0.990741136309964
3.890894751250991 -27.896132212079785 88.388007112645198 0.017726718893933 -0.116673607324123 -0.993012101029606
4.031372230008246 -27.991501119912765 88.388562450870026 0.016181219970638 -0.098246638298854 -0.995030535301925
4.241061628488671 -28.007023182735644 88.412925735877351 0.013839345863052 -0.080590991063740 -0.996651175018345
4.451312592684144 -28.151836143222223 88.416845084506406 0.011484788433411 -0.061428082817223 -0.998045434975803
4.785749984474254 -28.292779610880384 88.448393146107904 0.007714899079699 -0.042228288592789 -0.999078201130779
4.994513235369086 -28.434713458448201 88.445342979937081 0.005360424603040 -0.022991257392922 -0.999721295127581
5.201672708602016 -28.034520053135449 88.465301992477023 0.003018845839245 -0.009853396031022 -0.999946897168272
5.468753660772193 -27.755913195078627 88.469039903802553 -0.000000041378684 0.004658790494841 -0.999989147776676
5.934567539370732 -27.548186179676609 88.451126903827330 -0.005265259854987 0.019972150781922 -0.999786672361561
6.350617211238259 -27.689957862576737 88.457526113929561 -0.009961224570634 0.039209396391921 -0.999181363536988
6.902243346162049 -27.696884688883330 88.434864158654847 -0.016181209461136 0.056898461326147 -0.998248833487469
7.453825792987710 -27.766294838372644 88.436421905660566 -0.022377136658637 0.075217504659820 -0.996916039969119
8.197720665879164 -27.584833296249741 88.422064074500881 -0.030721272834393 0.090662876238317 -0.995407678425092
8.687944168994701 -27.342403528261617 88.456495004235947 -0.036166657330577 0.105310117158315 -0.993781541447432
9.307342060114443 -27.090038158760372 88.464557770752222 -0.043038368203996 0.119786838869384 -0.991866327735758
10.001206721361552 -26.785897750412182 88.452466574857652 -0.050715639715358 0.133625911943742 -0.989733317386792
10.963360955765548 -26.501968054564824 88.458882903677264 -0.061316939580019 0.147536190766263 -0.987154144667752
12.148738318163097 -26.212335716172916 88.421356182526139 -0.074346002428081 0.161308689105987 -0.984099679271298
13.831588565814899 -25.372986160769280 88.400916124979489 -0.092827600908146 0.168905940290479 -0.981251150238422
15.811112943942597 -24.001175264930758 88.464675862410402 -0.114419326739049 0.170454975826206 -0.978699810403921
18.273434600971953 -22.330978867870101 88.406760198750035 -0.141285276409268 0.168815280457576 -0.975469052176432
21.093975476462035 -19.970408862620118 88.334088091981315 -0.171951419351403 0.159586869842854 -0.972092968988459
20.536397321374714 20.384322659468790 88.362031418696901 -0.165815421166223 -0.164141880262670 -0.972400477811124
17.788043424000094 22.484204050842344 88.449070773162688 -0.135929531325169 -0.170505947819070 -0.975935901723079
15.602889302955163 24.004227781912391 88.488239303997261 -0.112115713054045 -0.170488746342653 -0.978960496780587
13.773382891966522 25.094420017439010 88.453899004282206 -0.092181517282346 -0.165813853007426 -0.981839260786793
12.299829651218982 25.868691220576036 88.465462267785298 -0.076027597676338 -0.157484042521714 -0.984590565028217
11.111574063616231 26.499055080100884 88.449987368294927 -0.062970919134206 -0.147503683518590 -0.987054875218111
10.068357265098284 26.723231220173687 88.457438573284477 -0.051467016505520 -0.132924708740894 -0.989788951250805
9.239504107635442 27.017733136097640 88.476177240611293 -0.042277767772569 -0.118976153560911 -0.991996605455895
8.619103816734906 27.136048758281660 88.480596767346626 -0.035393257125434 -0.102991784723982 -0.994052317350260
8.066878628862611 27.453942303949091 88.437828864603134 -0.029248324089414 -0.089189376381280 -0.995585149888586
7.453825792987557 27.766294838372318 88.436421905660595 -0.022377136658636 -0.075217504659816 -0.996916039969120
6.902243346162436 27.696884688883618 88.434864158654833 -0.016181209461140 -0.056898461326150 -0.998248833487468
6.350617211238343 27.689957862576865 88.457526113929561 -0.009961224570635 -0.039209396391922 -0.999181363536988
5.934567539370528 27.548186179676566 88.451126903827330 -0.005265259854985 -0.019972150781921 -0.999786672361561
5.599162454563323 27.886322555143032 88.468240106911253 -0.001474086747636 -0.006132842264531 -0.999980107459153
5.338348081548501 28.102859791368854 88.466256050046226 0.001473967655154 0.009080933747385 -0.999957681135371
5.133339843800382 28.295897780439144 88.442676990574341 0.003791230430650 0.024560328015834 -0.999691160738944
4.922514870031661 28.151589134247839 88.443262935904514 0.006170056816541 0.043823120589090 -0.999020252297577
4.581266816731744 27.878373978307415 88.461117732764805 0.010011090617803 0.064471246719601 -0.997869348367341
4.241066449492395 28.007028593355443 88.412926240333135 0.013839291517389 0.080590930071520 -0.996651180704917
4.030425249245651 28.125101121868347 88.461926956576946 0.016180951184097 0.096677341412213 -0.995184238458510
4.022010122518285 28.100548447992743 88.414028070413465 0.016253677985414 0.114377053724382 -0.993304438494703
3.894200202643185 28.065546645837046 88.394857422157926 0.017653882692643 0.132057443145677 -0.991084846083170
3.892140234620701 28.209664373024697 88.436922885396797 0.017629540035551 0.147563296734600 -0.988895481218794
3.885635507961293 28.229817039289308 88.436228456921285 0.017654895639999 0.164368606676823 -0.986240977550143
3.873736805123096 28.093737813782351 88.441308369088006 0.017728278258052 0.182699924266063 -0.983008873725553
4.268729076240468 -28.157840114191561 88.424435688655095 0.030704911901295 -0.181987438988646 -0.982821336986274
4.278117132888384 -28.160585379678736 88.456833653446438 0.030682412427411 -0.165030253207637 -0.985811140682564
4.476421555687613 -28.071026896405421 88.453969817060724 0.028548759015671 -0.149013555744715 -0.988422950240929
4.420903778023924 -27.779590594549379 88.392333663283793 0.029247576716819 -0.135172654402808 -0.990390293146037
4.628352098291652 -27.751576322942867 88.412764654933483 0.026977634463999 -0.118217959773854 -0.992621136801768
4.840344090458432 -27.845029775005095 88.418827862984315 0.024647383390050 -0.099828104679884 -0.994699379716327
5.180103269653133 -27.791003397290954 88.444554938469835 0.020853291994445 -0.082969996650997 -0.996333839568208
5.397687756869745 -27.808777285602289 88.445961270662281 0.018427098061255 -0.065256319395349 -0.997698378687674
5.936524791400570 -27.953846567194091 88.429278284761551 0.012365584644747 -0.046056742717790 -0.998862287188089
6.282244572442147 -28.093866731457275 88.434946827203362 0.008466208065535 -0.026843938832855 -0.999603784641159
6.624219638369762 -27.826233760099448 88.462471089192746 0.004600772709735 -0.012207711539511 -0.999914898713606
7.031251403371342 -27.482572561243799 88.469891083331206 -0.000000015862680 0.001569148425950 -0.999998768885851
7.568681089500625 -27.203234015696882 88.456938841919808 -0.006074726907433 0.016073064493013 -0.999852366247539
8.048020098881340 -27.140446266798314 88.475933278437921 -0.011485034438962 0.033002329908487 -0.999389283615022
8.732169117592919 -27.012295244056382 88.466489949512194 -0.019199899735782 0.049170845965192 -0.998605824015263
9.547955615913251 -27.082990087986161 88.411637786047649 -0.028389234246060 0.067560519887041 -0.997311198940188
10.237355340456757 -26.898790762648822 88.405617082041815 -0.036116991556345 0.082995840516490 -0.995895202005653
10.927157220763618 -26.657181506340947 88.438880391413960 -0.043798844527978 0.097677701026880 -0.994253854878178
11.680933384560694 -26.394754811193121 88.385944109117887 -0.052202575329075 0.112142189414990 -0.992320019188480
12.510960251762633 -25.957134564375998 88.446263680728862 -0.061356065969798 0.124436060512552 -0.990328783794971
13.421146228503225 -25.458838265496045 88.427007583797675 -0.071403466627592 0.136077642926540 -0.988121662574564
14.809474044527109 -24.808462735513313 88.428680591846899 -0.086684765903567 0.145878889284669 -0.985497387627849
16.353208194997048 -23.622163809146102 88.466779983762137 -0.103611850561265 0.149671154931045 -0.983291986037147
18.176612904231643 -21.891938501010234 88.525607415733532 -0.123549084405627 0.147413684746816 -0.981328094620702
20.281974788314820 -19.861207199825778 88.488205942006630 -0.146595030294444 0.141940006635975 -0.978960127691190
22.613332450529342 -17.293065325585367 88.493961226662421 -0.171930734310155 0.130468005357888 -0.976431217330491
24.678903010147856 -14.297747560283570 88.470521766789886 -0.194336009361831 0.114431203174580 -0.974237658482434
26.471631476557278 -9.829208710236735 88.573244131302260 -0.213654044142843 0.082266828335386 -0.973439324445568
27.487551466141646 -3.587167669396374 88.739498851181821 -0.224523120032287 0.030797032920606 -0.973981987171351
27.487551466141301 3.587167669396212 88.739498851181907 -0.224523120032283 -0.030797032920604 -0.973981987171352
26.471631476557103 9.829208710236639 88.573244131302303 -0.213654044142841 -0.082266828335385 -0.973439324445569
24.678903010148112 14.297747560283822 88.470521766789815 -0.194336009361834 -0.114431203174582 -0.974237658482433
22.479931555728982 17.569089157488477 88.480036903605722 -0.170458805646353 -0.133513617538216 -0.976277578104443
20.142523483998939 20.147391962857927 88.467018869395304 -0.145052256709801 -0.145106117522491 -0.978725731490157
18.097395336178444 22.096258822330206 88.443457547189269 -0.122752582764043 -0.149778245394678 -0.981069967245582
16.280960227129924 23.542394872500836 88.425460621738054 -0.102877435514736 -0.148883826854642 -0.983488606625938
14.751374089691952 24.602675323488647 88.463987318561024 -0.086037268357204 -0.143585482263331 -0.985890865023526
13.493543166847962 25.319602419869462 88.440810365129124 -0.072212461357112 -0.134521761312655 -0.988275900828351
12.444787871614638 25.680342247652284 88.424116485101038 -0.060655886516691 -0.121418400533919 -0.990746403194409
11.412143959036637 26.121376881100140 88.430136140366770 -0.049184842921709 -0.109072941294489 -0.992816168635531
10.650078278291691 26.448827027633733 88.470870208773434 -0.040683847985292 -0.095335323525955 -0.994613493072214
9.960847975666104 26.967313948366460 88.409475219892443 -0.033002117558478 -0.083767758796513 -0.995938664187140
9.280298233816726 27.282161602339059 88.405134714461013 -0.025369974436737 -0.069807237477034 -0.997237842238703
8.601585444093265 27.142885768799307 88.462377574148192 -0.017725877007487 -0.050644946030018 -0.998559403704122
8.048020098881130 27.140446266798811 88.475933278437907 -0.011485034438960 -0.033002329908492 -0.999389283615022
7.568681089500601 27.203234015697110 88.456938841919794 -0.006074726907433 -0.016073064493016 -0.999852366247539
7.099587063578769 27.619242254880227 88.469544669695466 -0.000772432051303 -0.003113962415285 -0.999994853280157
6.695837633459353 27.897852517542074 88.463617001916361 0.003791255414724 0.011398185627421 -0.999927851270672
6.423316110381519 27.957199357500357 88.432253334154126 0.006871638856318 0.028388726602234 -0.999573339371020
6.079856588600445 27.810502652657707 88.424210725381357 0.010746565134977 0.047675899100218 -0.998805046033902
5.607503295540170 27.534892220525574 88.431248366907269 0.016060312515057 0.068345829435696 -0.997532412486264
5.323848542181607 27.791008438756023 88.447447091515102 0.019233991864576 0.082969939858556 -0.996366419866116
4.982115086015059 27.982350386746063 88.435900334094100 0.023052479626335 0.098283267108268 -0.994891442615526
4.769280960416181 27.961329557734423 88.441210067079439 0.025395408550397 0.115863034043624 -0.992940496992022
4.562123352576808 27.989761015036002 88.424820377218396 0.027665284564966 0.132817803753098 -0.990754289940822
4.550083300605970 28.071044946643021 88.456069424289595 0.027725630789966 0.149013354043547 -0.988446412161019
4.482704576604701 28.219922840432933 88.472876711691200 0.028402378506579 0.164368964221186 -0.985989933263024
4.477120481535097 28.088603295268644 88.417852788598609 0.028388679765087 0.182756993494847 -0.982748169263072
5.063716874560148 -28.077181758997874 88.443221359546499 0.039209520442518 -0.182762059768990 -0.982375001216778
5.076782358718615 -27.952256389150499 88.455525312133531 0.039168812131433 -0.167240156040199 -0.985137825059957
5.224250266742010 -27.930237558890255 88.466072933269899 0.037627021030240 -0.150485901073252 -0.987895845150976
5.236545097558340 -27.768130305231807 88.426153847322510 0.037590470299425 -0.135210163416954 -0.990103614906757
5.444576428900049 -27.604606165446196 88.432171081847642 0.035332363638505 -0.119787320033140 -0.992170661750787
5.659281359381575 -27.629578700690960 88.435730103217011 0.032990091519038 -0.102182926355357 -0.994218438484733
6.005083751128536 -27.450032184879021 88.396979100181170 0.029161498804455 -0.086811060213146 -0.995797894561013
6.416477937898957 -27.333562976551530 88.401878061492795 0.024560316549363 -0.070616886897332 -0.997201106164611
7.091827196471348 -27.407755904163146 88.456518302711899 0.016953638147970 -0.052189796769803 -0.998493264507415
7.576979901118770 -27.547053733201547 88.475933278437921 0.011485034438961 -0.033002329908488 -0.999389283615022
8.186727332351699 -27.353854638680275 88.455442462237301 0.004600685742605 -0.017547138705999 -0.999835452268987
8.730416973134620 -27.136593419765891 88.469651905553022 -0.001544783238777 -0.002341546063458 -0.999996065395648
9.270014310709623 -26.730855381258948 88.462318623253054 -0.007643995825812 0.010733642831004 -0.999913175350436
9.746511475543477 -26.463221104692092 88.434011502592739 -0.013029970335068 0.025369855371223 -0.999593212417687
10.293502420716251 -26.389576574819053 88.434914001168224 -0.019199733657701 0.042170186093065 -0.998925946020199
11.041915328240282 -26.335729082161258 88.461011987359626 -0.027616078152739 0.059131179719811 -0.997868155525771
11.792451681327101 -26.207108086582753 88.400595735332473 -0.036057960560558 0.075254853867464 -0.996512182790356
12.556730802197645 -26.025702746314309 88.435357157672357 -0.044582976737514 0.090639585401218 -0.994885331957165
13.450889178153751 -25.637859313927244 88.396638445582624 -0.054568466219006 0.103714294056030 -0.993109071403018
14.480619050839804 -25.118250500699951 88.400427104394581 -0.066003689324362 0.115197897754232 -0.991147293467817
15.523453134604345 -24.339537054761927 88.412048963253540 -0.077539477840487 0.123736008221572 -0.989281067061134
16.854263889165718 -23.281744833418202 88.476059817157577 -0.092182947094808 0.129036880185450 -0.987345829897975
18.317440179064377 -21.879013065396499 88.488817233671639 -0.108293687259877 0.130557557249098 -0.985508600441827
19.928477256014332 -19.928477256014485 88.530496531215320 -0.125983408425190 0.125983408425192 -0.984000183741417
21.689328740559255 -17.763179153056356 88.606859859175628 -0.145167705803783 0.118966069760075 -0.982228797906836
23.585107525345332 -15.179041060920875 88.607683341003067 -0.165851947398444 0.107426607599523 -0.980281926551644
25.352628910739234 -12.308513761490806 88.547174101365400 -0.185160522712841 0.092832435769427 -0.978313712312070
26.850245670673196 -8.332705228514751 88.569914085413529 -0.201439872786861 0.066081377342103 -0.977269271603371
27.719438602324995 -3.016039803149014 88.683573732809378 -0.210751389557300 0.024625782954810 -0.977229462620489
27.719438602325042 3.016039803148924 88.683573732809364 -0.210751389557301 -0.024625782954809 -0.977229462620489
26.850245670673001 8.332705228515110 88.569914085413558 -0.201439872786859 -0.066081377342106 -0.977269271603372
25.352628910739583 12.308513761491451 88.547174101365286 -0.185160522712845 -0.092832435769434 -0.978313712312068
23.515387676199865 15.318844825390116 88.604020568995821 -0.165080624805840 -0.108973280511009 -0.980241404679675
21.546700840506478 17.975764345740004 88.601821483868562 -0.143586640511102 -0.121322628818756 -0.982172946279443
19.781729968422646 20.142498507750098 88.521502541082725 -0.124352339317802 -0.128362215268980 -0.983900217195540
18.170806884854201 21.880048483732644 88.504670105803413 -0.106660617940241 -0.130569088804239 -0.985685155427146
16.637831245660209 23.201543075902556 88.445693620940204 -0.089827819605362 -0.128227728374121 -0.987668270473927
15.250441311546965 24.068836713113985 88.466453154231417 -0.074484629199362 -0.120707023756451 -0.989889819337937
14.069176136230801 24.640272395060158 88.481093786129051 -0.061390583431223 -0.109838798016147 -0.992051729859054
12.960753401241028 25.287306344104621 88.458104317842952 -0.049061941368847 -0.099775939154080 -0.993799621591315
12.066063594409972 25.885000105913178 88.468684417497172 -0.039063039649117 -0.089056700482767 -0.995260258943606
11.379802763680321 26.478203662785361 88.393675366539100 -0.031406298767674 -0.078310829250201 -0.996434171643999
10.771011054266280 26.675159533130891 88.447328404678515 -0.024560192377510 -0.062960062415464 -0.997713800391185
10.094658712147382 26.395864714851019 88.438246561215081 -0.016953673468286 -0.042241214445397 -0.998963589305491
9.609845836838803 26.394882524438838 88.437395351098161 -0.011485202179708 -0.024597406176544 -0.999631460959627
9.131192675703588 26.730852686793479 88.463270966585711 -0.006074857869375 -0.010733612374743 -0.999923939941062
8.593749999999782 27.343749999999932 88.469999999999999 0.000000000000002 0.000000000000001 -1.000000000000000
8.056319694849416 27.557012148913522 88.458078352902859 0.006074718041716 0.015250795197089 -0.999865246444025
7.708074385206861 27.418622060076174 88.412969626947032 0.010011027634149 0.034476409403457 -0.999355370486572
7.228688644645024 27.266475583707400 88.451238726532040 0.015408752176938 0.053784562775625 -0.998433668885112
6.816877838491259 27.194460631551067 88.400872851462907 0.020043679204836 0.072186005284252 -0.997189767077980
6.547307082044691 27.649468911829814 88.428350708796103 0.023053316638001 0.084564392116370 -0.996151297834810
6.207045420684357 27.829517299705486 88.472525019076343 0.026831979531373 0.099935162454126 -0.994632096897991
5.860046789987608 27.744571558899690 88.462772815396306 0.030670966117047 0.118216968934145 -0.992513999948349
5.637703100491892 27.772543731000599 88.441075671540645 0.033098722421992 0.135160746489748 -0.990270693892516
5.358333439102129 27.807321197863537 88.391522869061887 0.036153945255312 0.151960317377768 -0.987725141010860
5.146043973352595 28.016893223950440 88.469200302152160 0.038397438764310 0.166520289297801 -0.985290124759463
5.136604903169546 28.009072654499459 88.433402645964549 0.038399923323675 0.183518575424864 -0.982265940752688
5.857666619170492 -27.928784155235846 88.442571247061196 0.047714323241531 -0.184287555164437 -0.981713522555902
6.019437112572677 -27.797940367029909 88.463302076141133 0.046041323176709 -0.168845961413134 -0.984566522828505
6.375664922553716 -27.843453105197128 88.496948065244126 0.042189321252609 -0.151353608914216 -0.987578931650978
6.724573026423785 -27.495545962652834 88.446268153049118 0.038398533888063 -0.138169453254416 -0.989663960535405
7.002658195750254 -27.398063603532137 88.406832386371050 0.035381934301018 -0.122104638129338 -0.991886372561102
7.277835377096886 -27.283828325497868 88.461726652008480 0.032338103841176 -0.105998445955535 -0.993840317402634
7.626803881464501 -26.973872072944332 88.416172128136481 0.028475133609541 -0.092112776393737 -0.995341350085967
8.171195903949375 -26.784120591552398 88.425972471640691 0.022376892075872 -0.076762816012260 -0.996798246777598
8.722789071475910 -26.729460423490877 88.419592382304131 0.016180843532273 -0.059846366141880 -0.998076446351779
9.274382788761939 -26.997542137423341 88.457526113929561 0.009961224570632 -0.039209396391920 -0.999181363536988
9.889173235772260 -26.872231410608340 88.446211554707190 0.003018839880499 -0.022991054474869 -0.999731112859808
10.494941944069494 -26.661225205729096 88.466718870274761 -0.003828325354013 -0.007714759740826 -0.999962912515822
10.970309152295719 -26.317565382293562 88.464628940087010 -0.009201527662436 0.006062115771375 -0.999939289477642
11.384631538039526 -25.985705456819684 88.443823115074693 -0.013884724065101 0.019972368676610 -0.999704115689778
11.856013075625974 -25.916871606630419 88.453603952722659 -0.019199854011363 0.036830697013785 -0.999137060349290
12.396392138778076 -25.779282632635145 88.437637050899227 -0.025286625338956 0.052890085028052 -0.998280133772426
13.015577838698711 -25.389838125964555 88.409975056444551 -0.032254121135913 0.066086724489166 -0.997292442825094
13.837375722204079 -25.127178428033179 88.404293537463744 -0.041468127995991 0.080640176050841 -0.995880292187268
14.802991442583465 -24.608202613356536 88.449071602216563 -0.052239926279747 0.092208573505976 -0.994368427231215
16.036360457240004 -23.950197434057408 88.407928468782742 -0.066016733549343 0.102239221219910 -0.992566840336620
17.348929182842127 -23.084304207706396 88.417916704554173 -0.080590242945010 0.109838142383265 -0.990676937866153
18.804191977030776 -21.751084533404445 88.443712401570792 -0.096700681840890 0.112180862500329 -0.988971401113394
20.274824008443417 -20.274824008443304 88.460053244791283 -0.112917911041663 0.112917911041662 -0.987167205052910
21.879013065396450 -18.317440179064160 88.488817233671668 -0.130557557249097 0.108293687259875 -0.985508600441827
23.420259434884549 -16.082120716547937 88.525412695923819 -0.147427024951479 0.100598763104901 -0.983943677847325
24.958640375881274 -13.417425628546649 88.509411335248217 -0.164306697478980 0.088230387707256 -0.982455448276703
26.439906158149302 -10.612932311981027 88.474329918283786 -0.180508326772523 0.074345220174937 -0.980759670970888
27.647310310197312 -7.062434383456954 88.494664963004183 -0.193635119120971 0.052238286100487 -0.979681888221014
28.157529187980156 -2.653124236452228 88.559596512401171 -0.199151224560019 0.020708864215646 -0.979749933758172
28.018132033352110 2.317297393256473 88.594276500416683 -0.197609050042617 -0.016993554522143 -0.980133604385625
27.366234016803276 6.992631050155118 88.553448578374883 -0.190523458616221 -0.051465526958432 -0.980332653364053
26.158950947079024 10.682325150903893 88.520294102243355 -0.177393869272575 -0.075114456832988 -0.981269195236042
24.553601612414276 13.752477090559303 88.545492443362960 -0.159810762708561 -0.091949462654671 -0.982855948977278
23.015739462368849 16.416787193883437 88.550246314448245 -0.142930859868499 -0.104318519438518 -0.984219698949075
21.529938107968370 18.525310718752380 88.511284142262852 -0.126669875353251 -0.110608761763586 -0.985758816597203
19.923209472201574 20.277891398651789 88.499214561856249 -0.108994079591581 -0.112952141487019 -0.987604224549227
18.329075396459722 21.682139958795553 88.496670477300754 -0.091387961494574 -0.111409929093096 -0.989563574609200
16.938337209519851 22.811700639530688 88.480146381490215 -0.075989772655685 -0.106783760667011 -0.991374189148350
15.686646530320360 23.463132888702496 88.479296181849008 -0.062090451670825 -0.096770886816015 -0.993368094553150
14.520258172213406 24.254570102678322 88.495546804563844 -0.049061362250853 -0.088232941008188 -0.994890914047935
13.564008691312164 24.999982211672592 88.485692935566291 -0.038362700566387 -0.079153801774993 -0.996123977660321
12.877205124715402 25.675646681242128 88.455112303545377 -0.030672473505979 -0.069263856174525 -0.997126730960945
12.197469679619546 25.997489006159796 88.430621766325956 -0.023041197422052 -0.055353188917031 -0.998200945550581
11.520401887835284 25.720158797435268 88.466448173914586 -0.015408922261779 -0.034608706624142 -0.999282143611370
11.037522455918927 25.845745352562979 88.450648075529543 -0.009961257555317 -0.018390362298666 -0.999781260037635
10.491665335034057 26.255487045418494 88.468093094503715 -0.003791288968397 -0.005360427776856 -0.999978445738711
9.820834664965963 26.869512954581360 88.468093094503715 0.003791288968396 0.005360427776858 -0.999978445738711
9.343306962159184 27.142581362648617 88.448682842396522 0.009188911923147 0.019935216879749 -0.999759046483514
8.925883529128644 27.065917092323527 88.456021991438149 0.013897734901969 0.038437059840466 -0.999164373561935
8.383622117307857 26.856766367811673 88.420985119652002 0.020009345103196 0.058409342275520 -0.998092167509335
8.040446233761816 26.914886478581611 88.432913875349811 0.023850792089259 0.075288733191505 -0.996876495043961
7.767362192731195 27.183037624001663 88.439188143331066 0.026892804314633 0.089758103973864 -0.995600451911866
7.423154527027969 27.355967048069825 88.473999483072234 0.030705487843748 0.105187989573421 -0.993978198888577
7.079370360656666 27.463612867847150 88.417579918034747 0.034521257032911 0.121369203771489 -0.992006955211879
6.793476573974215 27.357481081859220 88.429529815492558 0.037627541971867 0.139714321563621 -0.989476667958963
6.370996920274264 27.704962589253444 88.475412869398610 0.042241413678448 0.152899089507271 -0.987338610304638
5.946766410729128 27.866025386979757 88.471523425195585 0.046850123419820 0.168088198252869 -0.984658023652705
5.788218235252335 27.864014192737457 88.426984846523297 0.048485201073900 0.185006502467117 -0.981540513336922
6.864445053231080 -27.694348155248921 88.491799392678146 0.053811162252177 -0.186641191051447 -0.980953324383972
7.226942218737256 -27.435908062563158 88.444121252928909 0.049958934281645 -0.172759892530718 -0.983696154520397
7.520952298761927 -27.491112056136174 88.484215148594288 0.046813847454423 -0.155181643179032 -0.986776125221304
8.074121356797242 -27.142960460220095 88.448468201090762 0.040753982368364 -0.142019339592753 -0.989024580130725
8.428484616802464 -26.916630225730934 88.462320063936971 0.036865718579244 -0.127334675341950 -0.991174454497893
8.777139983525204 -26.869822505707827 88.474914284915528 0.033025822571851 -0.110575137468196 -0.993318898449708
9.125545527939309 -26.622915645868126 88.441447270873383 0.029173185645862 -0.095998811498840 -0.994953844874265
9.734520008952416 -26.496508751157435 88.463579500257353 0.022352483846430 -0.079950898376057 -0.996548152531907
10.088387364365953 -26.367370557865691 88.453857390965695 0.018391005478105 -0.063890349037048 -0.997787449418677
10.637988019330576 -26.450184018245491 88.432143369882340 0.012207861523432 -0.045392138052124 -0.998894650060797
11.312848332392095 -26.197092507420635 88.427578331178069 0.004588014780241 -0.030622329519378 -0.999520496565820
11.858700240814192 -25.992243870146478 88.459565594180177 -0.001581894888823 -0.015276434156816 -0.999882057128746
12.206617194945251 -25.777973650417859 88.408653846021380 -0.005518235436548 -0.000037058585931 -0.999984773736244
12.806446743442155 -25.511454077992866 88.453867817982086 -0.012294526319003 0.014611778885417 -0.999817653645101
13.278540751627798 -25.446575197314750 88.412227876602941 -0.017630730774588 0.031539789728888 -0.999346986284649
13.687876302053533 -25.231051047827428 88.411346453078110 -0.022242474890473 0.046733322577967 -0.998659736282369
14.369026819670655 -24.705917949907448 88.459150710298573 -0.029895959612754 0.058371888887845 -0.997847159732640
15.182954766418540 -24.303815312411302 88.415667914820418 -0.039050893545469 0.071413203837350 -0.996682086741297
16.078110264112134 -23.569535080154367 88.433320784352091 -0.049075315367693 0.080640381404417 -0.995534400364202
17.317683841785595 -22.710340159782639 88.484737661889000 -0.062902301334520 0.088378723287076 -0.994098839028076
18.632683865007607 -21.699969867125283 88.461740737502851 -0.077571343711518 0.094454390969654 -0.992502420481351
20.023016166578955 -20.229966784769630 88.514826172101067 -0.092982489828451 0.095299706469260 -0.991096474886363
21.610727897364413 -18.804071447507155 88.459532315574037 -0.110611404420937 0.096699334088194 -0.989148298284402
23.143405360075064 -16.785036866944644 88.500464232493883 -0.127493085147585 0.091410410299572 -0.987618170209730
24.544454836864023 -14.545596129242131 88.490162152001886 -0.142936641445047 0.083743966669365 -0.986182571626010
25.941539376605764 -11.947292009817014 88.480298687197845 -0.158294817769680 0.072103973398075 -0.984755689339987
27.132846151063816 -9.221024951421096 88.480278633498372 -0.171324843292918 0.059072745931100 -0.983442021045886
27.974718891985127 -6.145322756460375 88.468595670781113 -0.180561689347830 0.042225622086642 -0.982656844060659
28.206171433182718 -2.438997256377969 88.552949744876372 -0.183010560918889 0.018401012946808 -0.982938725106853
27.994116494480419 1.752717616085790 88.602352091472397 -0.180656748745481 -0.010783301321854 -0.983487091702435
27.414840850563863 5.870305492969411 88.581019628167823 -0.174342895152325 -0.039170892957563 -0.983905582896455
26.566769022296853 9.293581606402913 88.572647523240278 -0.165033000136677 -0.059879199804412 -0.984468684264091
25.386956733916541 12.360557886764379 88.536464853363384 -0.152122501212204 -0.076703482323477 -0.985380799703544
24.204110842955551 14.885815966877249 88.509290236071649 -0.139143662576123 -0.087535561873144 -0.986395745414818
22.879098378878009 17.049272050074762 88.509337761180745 -0.124543559634840 -0.094359134584028 -0.987717194076339
21.472471741990255 18.873089564702745 88.468110187700177 -0.109065433769320 -0.097471089843484 -0.989244215450075
20.014290820214015 20.361321324883242 88.502915564372614 -0.092884792522831 -0.096770477268875 -0.990963112354413
18.632591058793828 21.560025888240759 88.474954487730699 -0.077570302465992 -0.092884280132848 -0.992650673036359
17.394946100553948 22.228934292226104 88.521296594649542 -0.063770319071497 -0.082970276286104 -0.994509567404219
16.358933857070401 23.223284857835782 88.506659803201444 -0.052201415874344 -0.076690683517109 -0.995687476692558
15.330228909261688 24.047555769932082 88.487955341387547 -0.040683551979967 -0.068478154443304 -0.996822748016082
14.376817517970936 24.921253994191872 88.446057198794918 -0.029983841150264 -0.060800947481014 -0.997699460787309
13.490206659584347 25.311197248798400 88.411741188638615 -0.020009676489149 -0.047638622487274 -0.998664195059738
12.803176267829441 25.105719365412330 88.429435254883018 -0.012257559261099 -0.027687005373712 -0.999541485869594
12.256174153067635 25.429162599408439 88.460086912793017 -0.006074648503082 -0.013681616360444 -0.999887949732034
11.718750000000195 25.781250000000156 88.469999999999999 -0.000000000000002 -0.000000000000002 -1.000000000000000
11.181307324296750 26.394147313206741 88.463270966585725 0.006074857869371 0.010733612374740 -0.999923939941062
10.833063850993197 26.599702161601567 88.435492293053002 0.010011146705175 0.026071525244698 -0.999609950187103
10.354603208190852 26.521840229355519 88.431453153234955 0.015408864699075 0.044582737723308 -0.998886853645487
9.680608784909190 26.376952890059489 88.446014068356220 0.022990876650771 0.063782257303333 -0.997698974262338
9.267308059636850 26.442703752082497 88.447531734770152 0.027615657771355 0.080557015297032 -0.996367373378057
8.848718683645025 26.766757729589955 88.446658725402798 0.032287448715885 0.094380608284509 -0.995012473004869
8.501823789619690 27.018432301034530 88.421351054460288 0.036141177512418 0.108980088742450 -0.993386709970344
8.029921244630311 27.182775888341482 88.419864933206071 0.041359219143062 0.124436305770361 -0.991365230779303
7.803956924698170 27.130009043725799 88.435061407081776 0.043774942136887 0.142164161425408 -0.988874666298577
7.380020539910345 27.350346308301710 88.455163207592662 0.048385518680603 0.156751463050053 -0.986452137923415
7.018782976287266 27.505223883655184 88.445450815885010 0.052274129948979 0.171988945794070 -0.983710942229841
6.658772985744799 27.634762783488828 88.468918001507646 0.056091087620610 0.187301709527892 -0.980699678544592
7.870306988486058 -27.338795134065865 88.452326659104713 0.059941763725645 -0.190455908562470 -0.979864037433308
8.297370433102346 -26.998548080242745 88.461938115241637 0.055357986969873 -0.177387558811032 -0.982582895870728
8.534537641881169 -27.004925939418072 88.439490540659421 0.052899948268348 -0.160496200385400 -0.985617859586085
9.223521572004067 -26.652565611589644 88.419384720973895 0.045342814035042 -0.147404004787243 -0.988036481405452
9.783925571057859 -26.490474750628977 88.459156907906063 0.039159382252179 -0.132020773142661 -0.990473148672109
10.215023760057539 -26.523415500794787 88.431432822807992 0.034424904456523 -0.114464292120862 -0.992830726651038
10.565941550560392 -26.340271790792265 88.470379948540838 0.030526233270822 -0.099111615617850 -0.994607981433849
11.032381480483238 -26.158846748480141 88.429506976022807 0.025333654607601 -0.083754683468738 -0.996164323262620
11.303038359946376 -25.826632863706848 88.410473954725376 0.022314852115664 -0.069990041018535 -0.997298070555278
11.780321356031289 -25.775568957236935 88.392772130449472 0.016953898610287 -0.053012323989191 -0.998449928052067
12.265160463794373 -25.647134773607888 88.404109802630288 0.011485130961972 -0.036838648427626 -0.999255225529900
12.812148707137968 -25.641863795474688 88.452385085558220 0.005302376996293 -0.019236873567597 -0.999800893925152
13.284527217582365 -25.500411154851125 88.409553888722343 -0.000037068403827 -0.003176550674685 -0.999994954063142
13.819457923725704 -25.038818969834278 88.404558248517674 -0.006087636282386 0.009275749008418 -0.999938448688131
14.234147310630355 -24.839765993355204 88.437916894407664 -0.010770852386463 0.024680863494464 -0.999637356102720
14.713782061934056 -24.433319185689435 88.455390053662228 -0.016181317767243 0.037722457762221 -0.999157235441796
15.452998578734899 -23.891651812914773 88.455969296258885 -0.024514601859520 0.049220022721693 -0.998487067346866
16.338474166608020 -23.420971403645076 88.489495207966584 -0.034463128921294 0.061461181418612 -0.997514318655919
17.365229106762637 -22.406887066733749 88.472743652770646 -0.046006298375156 0.067597578762349 -0.996651387324216
18.538623813525081 -21.462337815255133 88.487210465222702 -0.059144716093206 0.074458182194343 -0.995468674375326
19.910911334639913 -20.323452832178631 88.482964856849335 -0.074482208006290 0.079116984969988 -0.994078922108183
21.225069122144198 -18.967562536662740 88.478852583897009 -0.089126210278741 0.081328537379813 -0.992694407987176
22.603489153635998 -17.480340049854455 88.459120853103897 -0.104450858864269 0.082062633611815 -0.991138608998363
23.857214969185975 -15.388351217411412 88.481519309214534 -0.118339095548685 0.076027763426333 -0.990058401132534
25.111073709836219 -13.213690726065131 88.488941668792080 -0.132191571235180 0.069085269036374 -0.988813740851403
26.363865458471068 -10.630245959304379 88.499470236989893 -0.145995039152673 0.057599553167106 -0.987607077747906
27.339508138377866 -8.173610160467353 88.458260865651155 -0.156777719843625 0.047589608123869 -0.986486683011611
28.043269276612371 -5.377767171110312 88.455358383098158 -0.164515984359884 0.033812740121590 -0.985794699466156
28.330451166320906 -2.234303387197487 88.507933430340344 -0.167604423280108 0.016182797496352 -0.985721499391250
28.251327795797224 1.326435787551725 88.531596863745946 -0.166723218574421 -0.006071787365539 -0.985985041360351
27.696105244833543 5.094249285739140 88.582677775904031 -0.160539650794449 -0.030632579192996 -0.986553934468249
26.991001130502305 8.319374844355295 88.566584855959235 -0.152788934921457 -0.049182267294721 -0.987034267869823
26.016248251932115 11.187828230090883 88.515897237283809 -0.142115815778731 -0.063821875126558 -0.987790394345316
24.969553816344781 13.565059861478417 88.482500996473121 -0.130610166681694 -0.073011619862313 -0.988741769990760
