ply
format ascii 1.0
element vertex 420
property double x
property double y
property double z
property double nx
property double ny
property double nz
end_header
14.877378677313864 17.516461549498565 91.983746766310091 -0.427084915795993 -0.487730415938238 -0.761391828212152
15.572783061851297 17.059910946813950 91.919405137823617 -0.435436198366652 -0.473841793211874 -0.765420977082385
16.159510785810951 16.782028063778760 91.688609135152390 -0.443200576530140 -0.461514358090510 -0.768490563533253
16.864997334691175 16.491727562816159 91.516389784065538 -0.451611861227907 -0.448465887592214 -0.771313862486857
17.358469099037890 16.386351477830267 91.249654834482641 -0.458553541075535 -0.437060980902487 -0.773761170478103
17.947059726779877 16.569006649753291 90.816298053890804 -0.466153404338534 -0.427754384324664 -0.774420551325069
18.264999181534947 15.974229907646098 90.940383355133505 -0.471518301874067 -0.411675498736353 -0.779867793114943
18.663465554799117 15.215243742956012 91.050455330741329 -0.477638771494602 -0.393997358714584 -0.785256190864522
19.086633882542664 14.399147405758391 91.192237527387078 -0.483791797854726 -0.375426072004841 -0.790569896206217
19.703794259545660 13.819537777034533 91.123083456743572 -0.491442768570209 -0.358533993354538 -0.793685945969372
20.155034594577721 13.879423842227226 90.829711417960851 -0.497714050884552 -0.347078619429660 -0.794869269431704
20.759807200747076 13.701120641023167 90.514152333701489 -0.505394858003579 -0.333420123459273 -0.795868744690948
21.351284726343984 13.083144671617816 90.346792059195664 -0.513031493297500 -0.315746927039649 -0.798187048848800
21.803369804488561 12.315613301252817 90.346665889749289 -0.519227396011787 -0.296418803134175 -0.801585182235377
22.531355377792750 11.681245941326022 90.134617155858365 -0.527652554793773 -0.277963273143878 -0.802694960867917
23.172646426014531 11.323067244337132 89.832660968415766 -0.535366017931658 -0.261838001647780 -0.803009394550959
23.805110832405880 10.809037630997274 89.539337104435020 -0.543058419312749 -0.244192800637032 -0.803403652798879
24.214978105907143 10.067209147949619 89.484708154212399 -0.548507769429356 -0.224241238166798 -0.805515421317962
24.798375434180592 9.097236895807889 89.382720380224754 -0.555258826917417 -0.201990133548225 -0.806776066253495
24.971910530286614 8.391259696427440 89.430923138177050 -0.558337048875795 -0.182007509244524 -0.809402870288506
25.385443206922773 7.609843323184659 89.270774692219945 -0.563610066312032 -0.161231448617703 -0.810153141775297
25.925820591497882 6.514636043956090 89.086457705723333 -0.569755075866284 -0.137411423774044 -0.810245181498166
26.420067438640139 5.176894437984050 88.960125010205516 -0.575191923463971 -0.111215673116371 -0.810422929855202
26.869839088614562 3.696606056280348 88.857245546330844 -0.579923293101820 -0.083587378534249 -0.810371596409766
27.379852250061589 2.403164821945331 88.591090828553519 -0.585215030129294 -0.057604444644804 -0.808829460682493
27.349952267578715 1.447956294557986 88.682045832987896 -0.585262649744941 -0.034636944318608 -0.810103643308558
27.308266334968010 0.485415268827882 88.710116888314857 -0.585202598802376 -0.011577234885549 -0.810804468406132
27.142350531435106 -0.643833000393675 88.827231620466080 -0.583686139579884 0.013025162237398 -0.811874889136880
26.919233950357217 -1.859898253189384 88.973126505128135 -0.581328071164312 0.038400002312865 -0.812762642780014
26.381637055904442 -2.905645882954813 89.267912084213279 -0.576101406517890 0.062192055902080 -0.815008783750692
26.267071551932048 -4.128584925091308 89.240125200292027 -0.574426097144843 0.087526994300878 -0.813863430919216
25.830193837019202 -5.200187082488441 89.372671839721477 -0.569818200209704 0.111427868110490 -0.814181213808158
25.546027055213564 -6.112547045296996 89.493142002502282 -0.565991973958854 0.133681456643005 -0.813500063653325
25.261371678448043 -7.108434688444365 89.529088453604672 -0.562177974407692 0.156595779487024 -0.812055224068977
24.967822924999055 -7.779356425246398 89.569139030128781 -0.558300053624754 0.176469421895614 -0.810653806046962
24.616919702743665 -8.658480664475373 89.615891115840668 -0.553620991991549 0.198029882340242 -0.808880685222860
24.194503761123322 -9.811410040383240 89.569451821567412 -0.548323465308518 0.221938608699102 -0.806278259263367
23.543882782399209 -10.482584022496525 89.813741682686498 -0.540714515768499 0.241263652063675 -0.805865784501449
22.905690783063385 -11.412515948634745 89.980910045201043 -0.532979715590090 0.262637578874003 -0.804334585189962
22.179310003100305 -12.105991102697573 90.217224537673374 -0.524517410304571 0.281745846492988 -0.803430621940274
21.360883439690475 -12.577559612249416 90.534762320929673 -0.515301512196704 0.298742876517163 -0.803254035320111
20.742348579830782 -13.156809157157141 90.706245891917121 -0.507651723472310 0.316397730869840 -0.801362716599674
20.405496679543774 -13.514359275564949 90.815999723027389 -0.502279492478183 0.331777976572276 -0.798522814763276
19.783374429352392 -13.781521810853249 91.028682960989457 -0.494721341645674 0.346403745826576 -0.797029007626210
19.534935883192759 -14.085493937939255 91.106951827430848 -0.489972004905433 0.360850482866817 -0.793545438789573
19.089816749157812 -14.581765661664384 91.103341712670613 -0.483819390976661 0.377009238505976 -0.789799234613529
18.663465554799266 -15.215243742956346 91.050455330741087 -0.477638771494603 0.393997358714587 -0.785256190864520
18.264999181535195 -15.974229907646311 90.940383355133235 -0.471518301874069 0.411675498736355 -0.779867793114941
17.947059726779464 -16.569006649753575 90.816298053890890 -0.466153404338530 0.427754384324666 -0.774420551325069
17.361946400670284 -16.572665233882219 91.142100620648165 -0.458583027225221 0.438640848247963 -0.772849153062394
16.776870441758142 -16.776870441758959 91.401639411460266 -0.450869114553377 0.450869114553384 -0.770346729131566
16.171822013134523 -17.451987649995829 91.354203587861889 -0.443080941720152 0.466894845019652 -0.765302869966172
15.565230162724717 -17.811662609730533 91.454069975838337 -0.435373304710840 0.480101695476147 -0.761546090230980
14.984027736951148 -18.284709102110540 91.506114963720293 -0.427755255538605 0.493844288095562 -0.757062256670144
14.746811650585663 -18.121872118119086 91.749410642308462 -0.423062570082907 0.502183494600239 -0.754208061178039
14.605305296718093 -17.990759151473100 91.901820545419753 -0.419211429361415 0.510675562782595 -0.750647884876417
13.839310314103159 18.130372190103110 92.200266127662871 -0.402361503770248 -0.514589982673098 -0.757167332903530
14.249833483350962 18.052324882545655 91.975715463457590 -0.408551091402886 -0.504598320371667 -0.760569878966820
14.756629987043262 18.111946153659495 91.664121868992609 -0.415421389821417 -0.495365760746230 -0.762914039691990
15.351305748992644 17.645347220330969 91.614340651743674 -0.423117665652950 -0.481604232389469 -0.767482119893974
15.959820218881802 17.390604510691254 91.463733144447858 -0.430813908292303 -0.469210741767309 -0.770870064428553
16.471261809097996 17.077768870301696 91.367496856588545 -0.437780987103350 -0.456173313578408 -0.774760424460176
16.880251920880127 16.792921150476232 91.277983022286193 -0.443959576152889 -0.443214496634043 -0.778755933984184
17.300287668487719 16.886456782796031 91.016278099033926 -0.450077543273168 -0.433120607316997 -0.780920447010158
17.625262822188738 16.300020919386597 91.152028257839561 -0.455444929003268 -0.417044360336410 -0.786539203191298
18.200500321295202 15.641102239201125 91.131178098551985 -0.463045650623060 -0.400154927008601 -0.790863300343244
18.805729745071488 15.015048963477795 91.099182978516879 -0.470749190831994 -0.383157105151163 -0.794723745777867
19.408647171766582 14.422944025207009 91.000308608483721 -0.478513524263497 -0.366278120014093 -0.798038311045196
20.028827389659639 14.321423192720971 90.699299535856923 -0.486254977439947 -0.353358650037192 -0.799183183856348
20.623582214915757 14.211719103301341 90.384798846797509 -0.493845349401645 -0.340243197019047 -0.800219555969876
21.211839327210313 13.692560484424064 90.207597141078224 -0.501450843583403 -0.323359225019340 -0.802487297758902
21.744727651746786 13.024937659001651 90.147206250126800 -0.508362169675215 -0.304821653345856 -0.805389138301857
22.526772133237110 12.474452223507576 89.829875223984587 -0.517568614923617 -0.287175434935016 -0.806010544854056
23.334697539437130 11.967446845432296 89.500246225193962 -0.526803094113637 -0.269622596104047 -0.806090662210159
24.052981181197907 11.454575817307546 89.177426671266474 -0.535297271324454 -0.251883426609778 -0.806232950648825
24.545777710667892 10.555254138681935 89.138212770942744 -0.541514990572951 -0.230376454772625 -0.808509866403109
25.018070183715174 9.492591216075404 89.085439027333280 -0.547586861258669 -0.207242162308448 -0.810678305827039
25.434531714795781 8.800752962376638 88.981319777619547 -0.552886045394614 -0.187238826191958 -0.811947438430692
25.815203270329597 7.985652225650512 88.942541956810260 -0.557580734067943 -0.165906741889808 -0.813374869289531
26.357167545145536 7.005021262161252 88.756801976115355 -0.563774333655444 -0.142963717919176 -0.813461662323484
27.055800782429742 5.675862297361324 88.435665511752831 -0.571434286602643 -0.116718217115471 -0.812305185191080
27.630164869650940 4.132871487957951 88.199722633453106 -0.577665055383669 -0.088339511343803 -0.811479645169317
28.105590757792989 2.918721729826532 88.044512406070552 -0.582360680822912 -0.062827687837858 -0.810499055565410
28.361863818448946 1.638967172830204 87.886331592960502 -0.585366453031508 -0.036703687888952 -0.809937624117229
28.517959797905839 0.470591128448911 87.854698226113058 -0.586804993068895 -0.011536642967919 -0.809646099217704
28.271780048968239 -0.885532414554885 88.025717494887317 -0.584536264390086 0.015360634177079 -0.811222168416619
28.016760224045463 -2.231776039115453 88.105933061843359 -0.582186067865132 0.042166860557695 -0.811961414264523
27.585634543796026 -3.270509324768867 88.387934411249319 -0.577574192615263 0.066066089706056 -0.813660447493780
27.472103044405877 -4.470837708082920 88.348494560680464 -0.575892901557755 0.091398507660533 -0.812399949983268
27.167065703796531 -5.358917159498443 88.476171805998661 -0.572140968546741 0.113744305145492 -0.812229613568334
26.699036182484583 -6.490919077419310 88.607947894687641 -0.566907581179402 0.138251939120331 -0.812097405322039
26.248180176146178 -7.472989365243976 88.747554186837846 -0.561540285104217 0.161218466988971 -0.811591716386263
25.780808231122556 -8.306867622598556 88.857288237770632 -0.556045790958322 0.182732161899795 -0.810815660532627
24.935270542058326 -9.236018064786961 89.206467802743504 -0.546833383766114 0.204907344296906 -0.811779668784634
24.289618484557202 -10.295753936211728 89.382641278706473 -0.539191550880338 0.228022711439562 -0.810726905022281
23.638937164236502 -11.287508746914781 89.502814440608958 -0.531553992986498 0.250373011001851 -0.809174707898101
22.920780273443192 -12.129859206765239 89.715066618912971 -0.523075117296615 0.271085375184772 -0.808025458154670
22.193089797980143 -12.902268008114099 89.890058595782165 -0.514574605634636 0.291014069162083 -0.806550548190060
21.567839244325427 -13.372933748008577 90.126301992351628 -0.506781821176855 0.307930704440352 -0.805202376416972
20.861742504392495 -13.683896819174471 90.428902154889997 -0.498336380254359 0.323282153003954 -0.804456028421760
20.436097662150985 -14.025054897500432 90.579273392826792 -0.492185459602930 0.338590570141659 -0.801941331499130
19.843898437780219 -14.145382070342635 90.889096284106756 -0.484625503901491 0.351807490266478 -0.800855549247570
19.315572672327136 -14.515742934002091 91.013429152311247 -0.477697296082848 0.367091931368956 -0.798153373255382
18.718156926451414 -15.194316689928876 91.064401364914602 -0.469985230100771 0.384720986564851 -0.794420320726813
18.200500321295678 -15.641102239201224 91.131178098551672 -0.463045650623064 0.400154927008602 -0.790863300343241
17.625262822188574 -16.300020919386775 91.152028257839561 -0.455444929003267 0.417044360336412 -0.786539203191298
17.300287668487620 -16.886456782795662 91.016278099034196 -0.450077543273167 0.433120607316994 -0.780920447010160
16.798628610317202 -17.146485710757354 91.122437005151866 -0.443263190942046 0.446231001712801 -0.777428862768978
16.388226393030550 -17.451606987043185 91.193334609853025 -0.437076879445693 0.459343313720370 -0.773283597132647
15.794582435426165 -18.033740326168846 91.161708182222171 -0.429421259464190 0.474631186904078 -0.768324552736807
15.472327215878970 -18.314464206430777 91.202490039552615 -0.423918422639864 0.486964868177433 -0.763648078703446
14.892497007158966 -18.697298476604644 91.285981856656576 -0.416344289220189 0.499987925102775 -0.759387587194548
14.648700751705199 -18.352164129790658 91.639470049248217 -0.411645183500332 0.506826300766928 -0.757413588306870
14.323023602165499 -18.211574411863189 91.886192480830076 -0.406333855647249 0.515256831829377 -0.754588096253840
13.466883100801148 18.707850874993461 91.944249590032442 -0.388577599709365 -0.522162504128424 -0.759179667988048
13.987167596205381 18.754583723511161 91.682033434905790 -0.395420240972371 -0.512950500486256 -0.761921660723891
14.427893887907878 18.731065760331418 91.485668120450171 -0.401686690823153 -0.503030662988970 -0.765250256130909
15.109900084002099 18.354960141043406 91.362889109385605 -0.410066936802241 -0.490011872872303 -0.769242141192099
15.699588114392455 17.903257687759364 91.296812723250596 -0.417775558220124 -0.476180249917445 -0.773767376245873
16.296830057980465 17.674783618413947 91.129174373417399 -0.425433444683043 -0.463831616086074 -0.777088550979939
16.720051442905380 17.133816202075700 91.204017789494515 -0.431692848072976 -0.448649216663026 -0.782531255165118
17.191794125149777 17.191794125149798 90.874891558806993 -0.438448969396096 -0.438448969396096 -0.784554015011715
17.441561643054698 16.706793010984633 91.017190843025347 -0.443130256516929 -0.423183494060820 -0.790285585161286
18.012284319516418 16.222566555964136 90.935572138100298 -0.450668363632141 -0.407748812819528 -0.794127780439265
18.623363039510444 15.789259699118169 90.835965446264851 -0.458406751290584 -0.392375644799563 -0.797436269390439
19.397330696234135 15.126152550871829 90.705065150545224 -0.467664642981503 -0.374811601366798 -0.800503619720636
19.995313800188619 15.074475023469972 90.346920665985749 -0.475459708989341 -0.362485360868334 -0.801587442693512
20.756819959833898 14.797760204414438 90.032418475291593 -0.484537487383738 -0.347833736332481 -0.802642582466716
21.346513381057434 14.290304934717156 89.876450965066297 -0.492163964714301 -0.330973348873216 -0.805128110409982
21.963689624897036 13.645695871780241 89.782316203401493 -0.499842011919901 -0.312545621878365 -0.807758130484944
22.582916028182446 13.273572726215654 89.531417389984512 -0.507605186845418 -0.296420192700964 -0.808994464534061
23.468319536019663 12.854567239030040 89.156636514891986 -0.517569791709929 -0.279576573596644 -0.808676975191764
24.232127068100837 12.176553925328694 88.818039615109186 -0.526791264171457 -0.260388119935581 -0.809128537989516
25.048506459218622 11.115725540382929 88.643891425407830 -0.535986257738951 -0.237267850657005 -0.810199172154354
25.695656962758150 9.910093612894475 88.537169050253155 -0.543690114284807 -0.212667066601508 -0.811895176985357
26.289971790151633 9.156356165164489 88.344396014420909 -0.550654913012889 -0.191954999219903 -0.812362262201572
26.704927403449048 8.416012559235792 88.207386690829892 -0.556004402060388 -0.171251844714023 -0.813346119786352
27.149053943639814 7.462268161706458 88.101760197259907 -0.561341871764530 -0.148378321427839 -0.814173922902318
27.602792320930192 6.092249301638535 87.978849015217833 -0.566792093367882 -0.121547645657484 -0.814845318284874
27.922863418788708 4.484925932576571 87.950637910776678 -0.570707982361895 -0.092343222307975 -0.815944316826948
28.425680658510139 3.202464761655825 87.726195034503078 -0.576014030449616 -0.066023170443539 -0.814769156074144
28.889317886094638 1.854467412603499 87.510875313290072 -0.580643693765399 -0.039013264683612 -0.813222519406097
29.108742234717447 0.693047086454090 87.368337603825736 -0.583007831099186 -0.013708015680652 -0.812350884275460
29.066898363606903 -0.885184872746352 87.468727219888720 -0.582293916584025 0.015485873736143 -0.812830844901856
29.054387443292974 -2.453076626087468 87.361967864772438 -0.582177654895391 0.044576030351152 -0.811838749788797
28.868274835796988 -3.476990389220160 87.462769878201726 -0.579801585777378 0.068534673621277 -0.811870137178146
28.687005525956664 -4.563896791860156 87.476145259526589 -0.577475711877206 0.093024077810479 -0.811090822990511
28.471322570443654 -5.571663731242488 87.518993551733800 -0.574517009816196 0.116661239759719 -0.810136013623381
28.078881899090867 -7.022799051981561 87.532930776629968 -0.569934681629155 0.144317059901872 -0.808917205217909
27.539396751385681 -8.233062058580465 87.669687294330473 -0.563698909648554 0.169564887584882 -0.808388080169022
26.866985778307409 -9.160142321090088 87.949609348706190 -0.555960788766045 0.191989814446805 -0.808732039988103
25.943591564542757 -9.918636151451377 88.368392211167148 -0.545963700729415 0.212745402580939 -0.810347475572372
25.046324943135737 -10.941880852803259 88.696059394915551 -0.535966318829501 0.235678921970599 -0.810675983867247
24.230985665532380 -12.084698231725259 88.848290439762877 -0.526780866042930 0.259551318499820 -0.809404121706868
23.437287194538861 -12.837741631401034 89.108119550799316 -0.517569989967682 0.279576110639813 -0.808677008356469
22.586747703591897 -13.541546765740406 89.430367839278944 -0.507639809375548 0.298841571932235 -0.808081393686446
21.802619158273082 -14.079208876314510 89.713029978735065 -0.498392884914738 0.316445873830990 -0.807134772638192
21.041609301738880 -14.234822906602311 90.159205596376282 -0.489169659788154 0.330298799414471 -0.807227196672722
20.406997518225921 -14.613399175267148 90.322158731413282 -0.481418806438673 0.346190150443676 -0.805225628344596
19.642487115836190 -14.805066648599535 90.676336817529616 -0.472329315196843 0.360095081612985 -0.804510130578739
18.890110849045165 -15.217828549638718 90.956651662981727 -0.463188252131720 0.375620673812009 -0.802723957841159
18.276581265057651 -16.044323158103033 90.908760893608104 -0.455362402467366 0.394614811325635 -0.798075330467984
17.831728253740280 -16.219372806640742 91.039439119351542 -0.449091592470005 0.407720922248194 -0.795034836427836
17.265318949721880 -16.616387285166596 91.164090475023698 -0.441599973514994 0.422398517714393 -0.791561087740069
16.854685751845764 -17.198413692166369 91.058774083885339 -0.435538597529533 0.438506118381821 -0.786141535732412
16.615794293194725 -17.570836945194728 91.009661378029506 -0.430798320833932 0.452398858388629 -0.780863675487169
16.287974828598031 -18.039174908177863 90.915543708842108 -0.425357933219050 0.466938900896886 -0.775266851785129
15.875769113798860 -18.442942635380810 90.866785727864809 -0.419268744078302 0.480754238794651 -0.770122770809940
15.574272089199646 -18.639000552478954 90.931767780311503 -0.413976779398835 0.492403389344775 -0.765612257138263
15.164087743144059 -19.016096359565118 90.906632425901591 -0.407844732272221 0.505414858716563 -0.760406795699721
14.739362781761727 -18.760972132601317 91.283407661290411 -0.401671343652969 0.513003591229131 -0.758608889398242
14.321091935558862 -18.642708369303193 91.626348864526719 -0.395434859582065 0.521366331346894 -0.756180150734726
13.506622865250435 19.049469963179114 91.686718143208111 -0.377876299603771 -0.527597045582766 -0.760822488948702
13.944889218266667 19.098908428758847 91.482639335304924 -0.383998490088254 -0.518396879886067 -0.764074495408878
14.350321488675881 19.132144913039376 91.206823580221993 -0.390121721664361 -0.509196693691979 -0.767153028683842
14.869149757524774 18.941076139832830 91.075072430901741 -0.397090845462067 -0.497712523408965 -0.771103822122612
15.291389452790000 18.488190355101757 91.126984680662986 -0.403329408103554 -0.483844203145843 -0.776672502179008
15.807859252473790 18.098310814691125 91.128489340975747 -0.410248771567394 -0.470088850138848 -0.781480913652137
16.300020919386654 17.625262822188716 91.152028257839547 -0.417044360336411 -0.455444929003268 -0.786539203191298
16.706793010984960 17.441561643054882 91.017190843025091 -0.423183494060823 -0.443130256516930 -0.790285585161284
17.045677312870829 17.045677312870723 91.079363804620399 -0.428582021769896 -0.428582021769895 -0.795383493185053
17.627414761244161 16.739560445108424 90.924226359362748 -0.436176238570436 -0.414653583180575 -0.798631764245610
18.213487511600569 16.471900005519217 90.709789738853175 -0.443897318770214 -0.400902464930817 -0.801394025433812
18.904418426639197 15.982195983255473 90.581058652388805 -0.452399577463711 -0.384811670514748 -0.804521348720036
19.663459357666945 15.838038476291906 90.206717882614129 -0.461601119364827 -0.371633971571497 -0.805489042616431
20.525745590229100 15.406539905494199 89.937206507841793 -0.471574657606362 -0.355543202382182 -0.806973589123749
21.290545324693554 15.064377012554651 89.637986039018188 -0.480766345006704 -0.340101226332654 -0.808204724903239
22.134828189410214 14.497529072664840 89.335512130117593 -0.490768127112533 -0.322472402579187 -0.809418430099824
22.915550211960088 14.137586158189585 89.011632488231186 -0.500016381945219 -0.306386715426241 -0.810006665649569
23.768233677337669 13.630222746776795 88.648015446996794 -0.510003506784916 -0.288812473693235 -0.810236865432747
24.559390629836408 12.979842587238611 88.389914897339665 -0.519227824844815 -0.269621915655001 -0.810991053283234
25.421401634024804 11.993271843228165 88.127248787225170 -0.529176122630789 -0.247186348376422 -0.811709024474764
26.229889195102267 10.649355934818690 87.990737349344556 -0.538408087931820 -0.221149671331843 -0.813147928558771
26.905042343346608 9.586263400676419 87.847469791773648 -0.546161545207549 -0.197433170240723 -0.814080898820996
27.322747200962624 8.617014580762721 87.775734991219537 -0.551565813595043 -0.174456505722170 -0.815683811831796
27.562966597101862 7.734542132497211 87.734556043861872 -0.555346347936836 -0.152160023599825 -0.817580430937116
27.776898608068812 6.477095405539307 87.848431201016908 -0.558276380174263 -0.126093021614294 -0.820017093260683
27.839479443976352 4.961057602929822 88.005780317045364 -0.559801116820723 -0.097520407694528 -0.822868446162182
28.146961577822722 3.561752960500971 87.878579204927703 -0.563624722092561 -0.069944768759960 -0.823064336470242
28.612678563368178 2.091783860197608 87.690729656994748 -0.568305955986957 -0.041566243652869 -0.821766747793035
28.837819622370525 0.849403872554172 87.558665083787858 -0.570736705319930 -0.015289769081614 -0.820990764967538
29.084280876080811 -0.864709825069061 87.386527577133251 -0.573047640657110 0.015433284810774 -0.819376723648694
29.198851794269530 -2.587233200447886 87.255854467997111 -0.573799098437537 0.046209195018723 -0.817691448486525
29.185198999936937 -3.810519993062756 87.210359090605081 -0.573026762144874 0.072234110203714 -0.816347085000516
29.014006567778161 -4.793164268568592 87.215091963023710 -0.570783137613634 0.095950577546223 -0.815475380673434
28.868373282875631 -5.788813489690355 87.199304791518500 -0.568464699737474 0.119668286098108 -0.813957852996532
28.404715155841878 -7.241529536758240 87.247774399548973 -0.563190431048755 0.147565739789006 -0.813044212091594
27.871247808399872 -8.617777109635501 87.328283862682881 -0.556973480319850 0.174560921521483 -0.811978464553072
27.148049012059431 -9.998316935434016 87.582804660293576 -0.548413483570192 0.201251662824891 -0.811628251879284
26.231782611242402 -10.821445988877933 87.942499265196176 -0.538425585539621 0.222740005441992 -0.812702146430054
25.335513728784633 -11.825770338751635 88.233984406161269 -0.528385039410377 0.245643551061542 -0.812692128637389
24.469110337671296 -12.890076640705956 88.477424392182442 -0.518399489289580 0.268798299299990 -0.811793966347210
23.676579952474512 -13.628946022012595 88.706095552034498 -0.509165797938712 0.288800804515242 -0.810767713664514
22.912488759472083 -14.395978831108209 88.915357587834663 -0.499988522699719 0.308738091101176 -0.809130563179859
22.056825914605746 -14.933717298715841 89.207839027160645 -0.490061392720900 0.326424456815401 -0.808261656493256
21.292934260617109 -15.155976807472108 89.597963017024227 -0.480787884416348 0.340927119353278 -0.807843864548050
20.523339664329093 -15.314417974992814 89.979143333747061 -0.471553070115111 0.354716626065436 -0.807349872891405
19.656342855154435 -15.570455570212950 90.333766063826914 -0.461537573490083 0.369244625147004 -0.806623502668336
18.729839625949339 -15.985330269053428 90.677509245811692 -0.450849006358907 0.384839508562514 -0.805378002005610
18.121214434393764 -16.564022766332748 90.714721548997588 -0.443082113564747 0.401716342135637 -0.801437596510271
17.532021157775503 -16.737897300228028 90.977124063209942 -0.435338350090255 0.414638974969065 -0.799096390542029
16.950913343929962 -16.950913343930381 91.181332784167424 -0.427754461129421 0.427754461129424 -0.796273974187123
16.358236897270423 -17.615990844799491 91.105152985039055 -0.420157045213775 0.444644793303807 -0.791049344317436
16.027655986240774 -17.990734489204570 91.083652183637881 -0.414694158134790 0.458598537313009 -0.785949194785036
15.693577561288279 -18.357649395770068 91.031989782948926 -0.409268738198167 0.472312832482378 -0.780653372634842
15.389023053850025 -18.772296766413078 90.975945199107557 -0.403954962550899 0.486017094866795 -0.774988884905934
15.144853600884275 -18.857361686618660 90.986629983716597 -0.399425142671106 0.497003739620851 -0.770355007905483
15.024274033530240 -19.351636521958334 90.792947872148588 -0.395590786326442 0.510785090558708 -0.763286657184940
14.769030596942692 -19.103655338182790 91.060546514831344 -0.390881822408274 0.518436526669864 -0.760549123150684
14.354238011484618 -19.079095812415069 91.319413640043635 -0.384718321402377 0.527580209110186 -0.757397475657656
13.477485153481680 19.504650548470238 91.438136227622891 -0.366310203829971 -0.533765946057099 -0.762175012316603
13.916295903812838 19.436495827951255 91.255191048341999 -0.372576562610701 -0.523841566590710 -0.766013523447847
14.244015760189136 19.300412782433796 91.148196756130758 -0.377992778427501 -0.513201984803735 -0.770548624195881
14.654649688253592 19.277634478649773 90.978793121813752 -0.383996252984883 -0.503117900422515 -0.774221709827366
14.972303922882929 18.914448727682533 91.047545631004368 -0.389283422623858 -0.489982855544269 -0.779984114032420
15.215243742956154 18.663465554799153 91.050455330741244 -0.393997358714585 -0.477638771494602 -0.785256190864521
15.641102239201253 18.200500321295230 91.131178098551899 -0.400154927008602 -0.463045650623060 -0.790863300343243
16.222566555964299 18.012284319516390 90.935572138100213 -0.407748812819529 -0.450668363632140 -0.794127780439265
16.739560445108488 17.627414761244445 90.924226359362535 -0.414653583180575 -0.436176238570439 -0.798631764245609
17.317351987865969 17.317351987865869 90.726918902884350 -0.422399911498859 -0.422399911498859 -0.801970466745199
18.096222378431008 17.236927495118081 90.417097545410414 -0.431573557081943 -0.410052230472923 -0.803493268865284
18.840299245624372 16.820384874039888 90.183389564377109 -0.440770977434740 -0.394780860588539 -0.806144538878852
19.687576305826830 16.681915229420333 89.789951721795532 -0.450762346596808 -0.381622766508676 -0.806955618961045
20.686609157943586 16.311831835248377 89.377010833424237 -0.462233298617002 -0.366229166307476 -0.807599266589177
21.711198046292552 15.909732213098579 88.986150258482212 -0.473803214803346 -0.350185982140185 -0.808010081344613
22.725058531898959 15.351526057460511 88.612237794602464 -0.485389255697591 -0.332560234122279 -0.808579594804293
23.590697304713842 14.909704566365029 88.297162500651439 -0.495458228436567 -0.315653510827285 -0.809249037674379
24.348474568811987 14.248827574197158 88.077105344255173 -0.504623258481193 -0.296580848515117 -0.810799091818606
25.015356634969436 13.588955441976893 87.853423731878195 -0.513029187563287 -0.277348177919343 -0.812329391880520
25.710496651394600 12.625700712538926 87.721573305733429 -0.521481914521439 -0.254984226422899 -0.814272471045516
26.284564183644306 11.302334354661667 87.766882190549467 -0.528577015773906 -0.228961389165145 -0.817424626902761
26.831759923182375 10.224015409318369 87.671584385905206 -0.535468740521282 -0.205053410048765 -0.819284033136204
27.322563184138744 9.098427816910668 87.615327441149006 -0.541573546847894 -0.180439301067479 -0.821060139079271
27.596220704631108 7.995671033314753 87.687577152352347 -0.545364616367344 -0.155813102595236 -0.823589528997392
27.702518288044693 6.825411789885882 87.800395043536369 -0.547597366921253 -0.130440193823646 -0.826512238007497
27.923843650269738 5.197926688000306 87.881337695941724 -0.550613801511266 -0.100581581216410 -0.828678337538347
28.106297648870772 3.906297690822194 87.915259150565817 -0.552959951372329 -0.073751984242634 -0.829937309077370
28.392839365939267 2.394499600891556 87.871037253666216 -0.555979874997065 -0.044755356577799 -0.829989961780166
28.492393608566715 0.785595886435600 87.773521282549297 -0.557552185423799 -0.014816509564403 -0.830009657518197
28.660885348688382 -0.916392030301288 87.657667862361563 -0.559145487930859 0.016053352532400 -0.828914116901764
28.696141071577493 -2.779685739263967 87.572953420071443 -0.559161620561171 0.048421091950326 -0.827643449769128
28.756817941771658 -3.906623129873490 87.478317401691541 -0.559100990670930 0.073755056451180 -0.825812493171826
28.510584250103790 -4.864954145320999 87.528596413123822 -0.556146480434736 0.097441811837067 -0.825352158539593
28.171517988908946 -6.089286430983245 87.528506179142468 -0.552324272288866 0.123580450513170 -0.824418443808444
27.887251135398429 -7.752254625523388 87.466984424225728 -0.548407115265468 0.153613425669800 -0.821980870446628
27.481673428381001 -9.287384192337914 87.468380651901271 -0.543064599647465 0.182210047721281 -0.819683072363427
26.830430813029821 -10.646493823962814 87.565631653351346 -0.535456320091859 0.209001437472786 -0.818293913217002
26.201316520349067 -11.470213709394294 87.773489760985058 -0.527801681292252 0.230524948397078 -0.817486167094953
25.555057441321750 -12.471280869105119 87.869078681852216 -0.520039055428588 0.253550829565628 -0.815641684599018
24.689341540757503 -13.664513210693830 88.032702091369416 -0.510014716049538 0.278046816557502 -0.813987074353855
23.847901920436833 -14.488894082691921 88.298808399408188 -0.500015206852958 0.298790795201067 -0.812839992630104
23.074989831725070 -15.389462926604786 88.422869403396973 -0.490731737070159 0.320050526318438 -0.810401149330006
22.222243830653149 -15.767206899749524 88.740617112869344 -0.480801111694983 0.336353288618939 -0.809751045833282
21.222309296888056 -15.921192513761177 89.266075403050252 -0.469364017950495 0.350290043709808 -0.810551851475985
20.385681516512896 -16.088913395274325 89.723196369420336 -0.459265163158249 0.364017550756564 -0.810288055354649
19.516147673835199 -16.261866654732266 90.082735562885730 -0.449221692044893 0.377847727642062 -0.809586910783551
18.668776804640750 -16.732692493937321 90.319807221903687 -0.439237747426842 0.393996983051196 -0.807363969088261
17.936645086201928 -17.170235600809811 90.536600892827124 -0.430155470418572 0.409459571676973 -0.804555237650645
17.342697453615386 -17.342697453615393 90.775035581267332 -0.422399924495233 0.422399924495233 -0.801970453054752
16.737897300228283 -17.532021157775006 90.977124063210084 -0.414638974969067 0.435338350090250 -0.799096390542030
16.135670713652765 -18.191028398823555 90.878516691953038 -0.406989963441208 0.452229310966934 -0.793629523115475
15.639298519703672 -18.567564421679080 90.916184069117392 -0.400139273797654 0.466231141384007 -0.788997518607285
15.237679778884896 -18.786590384049362 91.040647876202428 -0.393986981974700 0.478453067701486 -0.784765519146646
15.063195139448894 -18.899662491443685 91.011417517057026 -0.390062067501490 0.489856185140441 -0.779674612499418
14.752346356752881 -18.914809336919852 91.165148214341954 -0.384827643236770 0.500030289651263 -0.775807575647536
14.693688994246713 -19.467827393324086 90.814232946177171 -0.381794226005974 0.514617274438449 -0.767725360944942
14.471120887582948 -19.355607746685351 91.038669454636448 -0.377233869617921 0.523162576569171 -0.764195999787094
14.140720339275383 -19.414333837750554 91.179813356348390 -0.371838545797077 0.533013118594237 -0.760021783415424
12.826879399569435 19.833703855812942 91.458709402975188 -0.349611538909018 -0.539205444046351 -0.766178348018557
13.159994133009626 19.845762411327655 91.291451051394716 -0.354899553977977 -0.529946109941177 -0.770197005411244
13.335759903804643 19.728471951384790 91.341233138236873 -0.358743183896430 -0.519190844597748 -0.775721725165494
13.727619324257361 19.758165070564793 91.092881205741477 -0.364672562862521 -0.509810239248694 -0.779170996542139
14.077517466775461 19.340192230733990 91.204945203713379 -0.370134913172957 -0.496180506593766 -0.785369372287207
14.581765661664377 19.089816749157855 91.103341712670598 -0.377009238505976 -0.483819390976661 -0.789799234613529
15.194316689928748 18.718156926451343 91.064401364914715 -0.384720986564850 -0.469985230100771 -0.794420320726814
15.957974342782450 18.454275818672734 90.849834796213372 -0.393856767121258 -0.456922358165857 -0.797558026478916
16.471900005519053 18.213487511600704 90.709789738853203 -0.400902464930816 -0.443897318770216 -0.801394025433812
17.236927495117740 18.096222378430475 90.417097545410883 -0.410052230472920 -0.431573557081938 -0.803493268865288
18.075219670928270 18.075219670927915 90.002110614803513 -0.419964866996766 -0.419964866996763 -0.804524095957840
18.830698490119950 17.672399450131692 89.790835487454075 -0.429250503462997 -0.404785086324357 -0.807398934335528
19.848735141861972 17.622392431069606 89.295281776433583 -0.440782796689829 -0.392402517232344 -0.807298452006451
20.855850808184854 17.185702864122099 88.947201789481468 -0.452341612655076 -0.376369901500974 -0.808537421956927
21.770601745207010 16.769268617671216 88.589126188951482 -0.463182997397011 -0.360346573600870 -0.809698621597217
22.609258416414789 16.281515482079868 88.328471189885008 -0.473183690790987 -0.343301786369798 -0.811320576741848
23.431891977371627 15.580780959969069 88.109324570232999 -0.483136176288855 -0.324121027969806 -0.813341868090400
24.029640962993085 14.996717976762930 87.992567123747023 -0.490828845275782 -0.305660342853620 -0.815879157382912
24.775363928590920 14.348583738627561 87.753868448810209 -0.499968463524177 -0.286437866616630 -0.817303422267023
25.467512490350465 13.339464036839225 87.678406116880709 -0.508403576347363 -0.263517662803546 -0.819807443823102
25.994106235760967 11.931072011501662 87.743550212963740 -0.515351133349864 -0.236668750694656 -0.823651086200730
26.462964574150753 10.625739979315703 87.789764466057846 -0.521514689405206 -0.210459545816292 -0.826879198135611
26.948235917528336 9.355140906309991 87.795437966843096 -0.527576139770741 -0.184295748619155 -0.829275885206792
27.226582027931968 8.114866804340704 87.906906401088179 -0.531409940622285 -0.158180600249368 -0.832215340349221
27.432769857346294 7.038685834280470 87.948870641599314 -0.534576523933450 -0.133503518685648 -0.834508688126002
27.822586290307363 5.513863726581501 87.922496716598147 -0.539196238858544 -0.104387546113311 -0.835685740106436
28.078693629551765 4.311752649749197 87.915236062843661 -0.542248964026565 -0.078199663619271 -0.836570901730361
28.024538266459892 2.739373478456649 88.044012306699628 -0.542352941473372 -0.048424535376361 -0.838754046934359
27.987202595449673 0.771019148578187 88.129640940263059 -0.542307240448477 -0.014796198156307 -0.840049956536680
28.044433994840823 -0.982332197403043 88.088690933358663 -0.542852768990952 0.016810429867534 -0.839659621898376
27.840524606847140 -2.889019865594989 88.153970932984123 -0.540599929568897 0.049850146380823 -0.839801571239250
27.638818872280012 -3.997380133671423 88.156047534694011 -0.538370645265924 0.075251167606126 -0.839341593208550
27.491940143677823 -5.031046429206951 88.193778258235284 -0.536053513389201 0.099798464301939 -0.838264216882761
27.332837162334712 -6.407965089817125 88.111319777409705 -0.533628305933530 0.127518883099128 -0.836050097517883
27.021060924334677 -8.029679742157693 87.981943467852204 -0.529765188257409 0.157463576225800 -0.833399104554819
26.622897508332834 -9.850610775886054 87.890250875123371 -0.524503140722895 0.188975732274356 -0.830171444933630
26.058455197835009 -11.358727544078008 87.854311861841282 -0.517704673616229 0.217363450542319 -0.827487160797224
25.658200310565199 -12.319156192616685 87.840656105694563 -0.512197975317424 0.240311707430927 -0.824562621850132
25.136051811874090 -13.254437898409233 87.910317663514320 -0.505304364767406 0.262722654496580 -0.821975854731317
24.373511639907051 -14.278956269966272 88.022735788910296 -0.496225776659282 0.285789385023436 -0.819807542040703
23.703241900530081 -15.098130173086737 88.150129311231197 -0.487802428377655 0.306600650654490 -0.817340095607151
23.008965486291238 -15.996724297397037 88.192756750968172 -0.479232119323283 0.327960623072067 -0.814112034994629
22.255639569991253 -16.528859934884494 88.428938573950703 -0.469935607329763 0.345573711168224 -0.812243396472405
21.174803775867865 -16.930153388590135 88.855797894422452 -0.457737444254345 0.361817049525547 -0.812135982948747
20.177516407200322 -17.177347191812430 89.327191339308399 -0.446175496838472 0.376293947748500 -0.811991558397495
19.253765921842323 -17.283891163674845 89.780725007991848 -0.435403814499976 0.389342203812267 -0.811687234499520
18.565019427362977 -17.487310489464754 90.023989549145526 -0.426861518095162 0.403120766922622 -0.809495454987371
17.748478574283581 -17.748478574283801 90.341405254289853 -0.417044145653737 0.417044145653739 -0.807557032754893
17.170235600809548 -17.936645086202276 90.536600892827082 -0.409459571676971 0.430155470418575 -0.804555237650645
16.564022766332727 -18.121214434393778 90.714721548997588 -0.401716342135637 0.443082113564748 -0.801437596510271
15.967905996477384 -18.799744026141767 90.646125164490400 -0.393943955723619 0.459955175367762 -0.795769688038718
15.275144337662503 -19.160936260193488 90.761691099028184 -0.385426104315297 0.473847912938964 -0.791779561188416
14.695688570738909 -19.208385187993557 91.052153200994681 -0.377800351535733 0.484595227345928 -0.788945093154793
14.341355154133240 -19.225199655992235 91.152782713392895 -0.372406829881454 0.495190301007425 -0.784920199030336
14.181670645164466 -19.054484944742505 91.336614316876904 -0.368556330896967 0.503791249206591 -0.781255789212872
14.048974504059487 -19.635223839361714 91.070575156437698 -0.364800208102416 0.518398928572074 -0.773423143579089
13.805263517375238 -19.667839326010899 91.113913266085376 -0.360343487027548 0.528445029326001 -0.768699175449974
13.643268377563189 -19.827496596389494 91.086152198779004 -0.356450685914076 0.539153443883635 -0.763057319249217
12.618566542655451 20.260725095688969 91.244627895258731 -0.336298212090006 -0.545249306536135 -0.767858519694174
12.959849217979183 20.272646859893356 91.092182503692271 -0.341584873446726 -0.535989464021471 -0.772033074868144
13.133438527841214 20.036832451025795 91.161764615424403 -0.345515907194547 -0.524482137866204 -0.778162736794062
13.407438096996763 19.942350017116368 91.142415007649134 -0.350186371891353 -0.513758700843141 -0.783212297049490
13.667495794098706 19.693713060569479 91.203231722026302 -0.354799254209695 -0.501556908561030 -0.789023546345067
14.085493937939020 19.534935883192624 91.106951827431033 -0.360850482866815 -0.489972004905432 -0.793545438789574
14.515742934002567 19.315572672327022 91.013429152311076 -0.367091931368961 -0.477697296082847 -0.798153373255381
15.050029006515764 19.058311249301880 90.937803182980332 -0.374139784719052 -0.464672678927737 -0.802557613476130
15.809485705938862 18.815728477884456 90.713235681333941 -0.383277695229939 -0.451611852543605 -0.805695316469793
16.643624645316038 18.837351796409166 90.271347045752805 -0.393200810273675 -0.440744630342444 -0.806930786142422
17.498736840736179 18.915464521589115 89.832617095095443 -0.403223512640376 -0.430012719374059 -0.807774634431215
18.349667369120155 18.677458571234148 89.529115212730403 -0.413328063040436 -0.416293157586921 -0.809851788446227
19.499073987566881 18.764183000322191 88.866564801862566 -0.426270124556983 -0.405363845666778 -0.808686548383498
20.350017416915506 18.096853671373523 88.763721956148316 -0.436396444477221 -0.387186418440603 -0.812185213250511
21.251261551896171 17.672922277092795 88.462414706561376 -0.447097355339922 -0.371047679428584 -0.813896537920337
22.139923770135503 17.015607598752403 88.218427743987917 -0.457800663984971 -0.352570613366199 -0.816157162956684
22.879962334521338 16.237796484668941 88.120125583868983 -0.466980123984392 -0.332580627472515 -0.819341009612915
23.480534921449539 15.739436432316708 88.003608617303257 -0.474682776888480 -0.314823820232714 -0.821925923389402
24.226635798402924 14.945735501169914 87.857705488695260 -0.483820112565934 -0.294136274520780 -0.824258424699271
24.836134010076371 14.099138178221072 87.815931519274841 -0.491474842329061 -0.272608911916936 -0.827125661856220
25.360962061742924 12.782838077458063 87.897321569995981 -0.498389712167782 -0.246468917990147 -0.831180345815565
25.992207025570650 11.185672677738079 87.964283717688502 -0.506081763218243 -0.217330132628694 -0.834654936120016
26.407602093901779 9.693547743291813 88.094754540936250 -0.511479228222493 -0.188883792399770 -0.838279137319785
26.811388291454811 8.309176921993988 88.104802128505654 -0.516796815454288 -0.161302862124191 -0.840774903411639
27.170702900878226 7.113541597941946 88.084060962064655 -0.521419922533508 -0.135292124322735 -0.842506561091006
27.559760960132287 5.757794718810652 88.049225311340336 -0.526046861743147 -0.107564862688614 -0.843625805416694
27.719503985582051 4.415587533824432 88.058737105297567 -0.528488856757674 -0.079871749052927 -0.845174557110064
27.846768955794865 2.776030421225076 88.152432557635564 -0.530015547448333 -0.049167198897773 -0.846561342145737
27.808109529858129 0.884288080374086 88.238672209534201 -0.529949644756972 -0.016004017299645 -0.847878084073548
27.866727905245256 -0.837195950222649 88.202883525316992 -0.530512903865141 0.015551512926133 -0.847534193574680
27.667783731185757 -2.775010217826067 88.264298277248045 -0.528296684252240 0.049157401496457 -0.847635631203765
27.499316576098529 -3.949720594672332 88.309593332464559 -0.526072581065693 0.075357032083188 -0.847094420455295
27.163529802152588 -5.354420460280082 88.345414876820684 -0.522250453215987 0.103700013991378 -0.846463685702986
27.074615134910381 -6.932447058548304 88.172326727271169 -0.520500862122529 0.133559990995201 -0.843350805617132
26.643962792676348 -8.382120881555821 88.193484879713395 -0.515199091446477 0.161998958694110 -0.841621193622611
26.162465377264006 -10.328982782439546 88.098514481522926 -0.509146592228223 0.194930371894943 -0.838314915610647
25.673830078943759 -11.841591177516960 87.983513377062792 -0.503060822458903 0.223553858786573 -0.834837398017485
25.269626405927184 -13.030979215838094 87.878107153382743 -0.497526018022952 0.248815406296341 -0.830998649204565
24.659383916217152 -14.010700100863186 87.949779262194753 -0.489810058549658 0.271775926352672 -0.828386354546433
24.056550143707895 -14.862773683294073 87.986847898025857 -0.482224412643849 0.293357948056047 -0.825470005610525
23.558492414837325 -15.675519544807258 87.983008268287165 -0.475410875266997 0.314226856680744 -0.821733522632737
22.996816671764407 -16.604436067336493 87.976994945318225 -0.467805656275108 0.335802305244276 -0.817554083684771
22.404735980829756 -17.282483769958191 88.027128342623485 -0.459995247164399 0.354842660841037 -0.813935537148622
21.435861097902389 -17.942873456274185 88.310946182903095 -0.448548148026689 0.373325273161142 -0.812054677543936
20.413615946254971 -18.252948096254357 88.654909388573117 -0.436978368983942 0.388614677429356 -0.811189581741908
19.425072736128293 -18.450593359982598 89.135984612582661 -0.425364463266287 0.402290526239041 -0.810695630855686
18.650365963152666 -18.322589958950097 89.556848936983386 -0.416048086505225 0.413083129434194 -0.810102658860094
17.825805266260126 -18.315345879421400 89.986089256333855 -0.406164510981568 0.424616454270492 -0.809154655663464
17.084195969786499 -18.586384836242900 90.192284942248577 -0.397139053989331 0.438501249988763 -0.806224054190119
16.336093015100204 -18.821515314233729 90.457590472395793 -0.387954907319480 0.451663249970990 -0.803424731080876
15.718423902660611 -19.654392539300218 90.274252114827192 -0.380038601206077 0.469933302791459 -0.796701545449009
14.855257192098769 -19.756658184782736 90.590602198521779 -0.370069343086019 0.481565449309679 -0.794445340686852
14.267423395117497 -19.537959018988197 91.022134885061675 -0.362435096203445 0.489998336547236 -0.792806679601617
13.846824934649078 -19.414906153536741 91.299168680003675 -0.356350678559123 0.499144875452347 -0.789853522623096
13.664544421481452 -19.229438649598173 91.491284128107395 -0.352395758541561 0.507632453807667 -0.786210227104128
13.401862869668797 -19.767050724476128 91.223597880964363 -0.347807194790173 0.522179263546531 -0.778690549560089
13.240607815568978 -19.998417809833917 91.157477908869780 -0.343964385249334 0.533665292057241 -0.772586472657596
12.903934703883905 -20.262994658314099 91.117499061021661 -0.338699694554270 0.545268405775596 -0.766788681822954
11.745402064918117 20.628028359967075 91.393333063232262 -0.317081977734838 -0.550564244697652 -0.772229261201794
12.209540242016907 20.651646733960895 91.201672551551880 -0.323298359646131 -0.541404108024516 -0.776118394617921
12.579553594648317 20.339170437890715 91.257003580661831 -0.328797493740022 -0.529231340000778 -0.782180539818821
13.015726864492692 20.282709223762915 91.083436405249842 -0.334947568544355 -0.519092283724104 -0.786354453986444
13.529204686735270 20.028882908747086 91.055582214855903 -0.341681483587443 -0.506824275608406 -0.791443565535471
13.781521810853249 19.783374429351788 91.028682960989840 -0.346403745826576 -0.494721341645668 -0.797029007626214
14.145382070342983 19.843898437780176 90.889096284106628 -0.351807490266481 -0.484625503901491 -0.800855549247569
14.805066648599492 19.642487115836467 90.676336817529474 -0.360095081612985 -0.472329315196846 -0.804510130578737
15.570455570213120 19.656342855154172 90.333766063826985 -0.369244625147005 -0.461537573490081 -0.806623502668336
16.424081515779484 19.851136888448906 89.819997078472781 -0.379305576667381 -0.452232289821595 -0.807225641039569
17.532395554436526 19.938919266351583 89.289695083621524 -0.391588875819876 -0.441598130967829 -0.807247943979943
18.680700743107671 19.670381511741006 88.817895011727188 -0.404604156366436 -0.427829024585868 -0.808243652850370
19.607630502380552 19.607630502380658 88.379250695404892 -0.415534930901589 -0.415534930901590 -0.809111514193948
20.361700141071879 18.845888889539204 88.412340369385902 -0.424771703406719 -0.396434123994653 -0.813885118009628
21.060314241053710 18.392990419259590 88.194946683203241 -0.433838698166655 -0.380191168095393 -0.816846778579265
21.881883407211042 18.000151902350680 87.983506680830715 -0.443666884550042 -0.363901162639399 -0.818984517181706
