ply
format ascii 1.0
element vertex 429
property double x
property double y
property double z
property double nx
property double ny
property double nz
end_header
2.020476826831119 6.978538628279212 67.730345852811624 0.049996711224719 0.182002484728444 -0.982026183163863
1.959921825218948 7.527228425641214 67.837825121478659 0.050654369493014 0.195849885583352 -0.979324745510014
2.048064798469508 7.963226388880974 67.914644001975958 0.049168969405354 0.211197694568334 -0.976205893373235
2.029334219374086 8.479410683021719 68.048868594216927 0.049183694846645 0.225072777305567 -0.973099793997096
2.062975182843740 8.937943891153445 68.157082076762322 0.048453191309664 0.239625922732203 -0.969655457060212
2.048399712101913 9.543128642327876 68.285149067633014 0.048412601385677 0.251955008601162 -0.966527233795230
1.927740198705900 10.076853768275967 68.438731630092875 0.049824254978108 0.264941553844436 -0.962976384270337
1.901110118602224 10.595565868270935 68.579505671469022 0.049904040864425 0.277985510305344 -0.959288091641754
1.873984995290046 11.151572106655067 68.718009398054278 0.049989778955777 0.290358474389444 -0.955611311334366
1.793317823268441 11.523413453011980 68.845504886063054 0.050772650597203 0.304881013219893 -0.951036122200070
1.612069599687465 12.044103530347233 68.999939143851151 0.052925489231680 0.317169568679193 -0.946890889856610
1.685413778878181 12.484716681929392 69.191228462693090 0.051537068806999 0.330118966327075 -0.942531378050580
1.715087623388890 12.919776494673304 69.299623234192453 0.050800681778469 0.343232825894258 -0.937875534364494
1.693101055245012 13.492096554171372 69.506544553134830 0.050727515044404 0.354046129864687 -0.933851196468290
1.670193613562116 13.925381464394814 69.712794621273346 0.050627167618791 0.366265074444958 -0.929132275373495
1.809963870816879 14.413021426489248 69.871371459968344 0.048415854561111 0.377871226326727 -0.924591391557078
1.781194690946938 14.815192730560216 70.037324165062515 0.048412174203139 0.390128098587893 -0.919486991795491
2.102847616224804 -14.764836709311918 70.070218993175317 0.064600896366171 -0.390174508987916 -0.918471870404710
2.141639933853797 -14.370939309194835 69.908747929668380 0.064600476498166 -0.377828123805062 -0.923619341123905
2.016244539457306 -14.013891932166217 69.735332075744140 0.066786595559232 -0.364793688478276 -0.928689999676976
2.106375215135912 -13.509576366617438 69.569816784294233 0.066061365323462 -0.353241765706004 -0.933196737549219
2.192469087552917 -12.988277345834110 69.385386311506224 0.065380096101163 -0.341750745225860 -0.937513664525148
2.123961126724927 -12.450040762920992 69.172170472527071 0.066793097499320 -0.330321345271254 -0.941502252246183
2.159361367012400 -12.000386986245754 69.047887797064547 0.066747343923655 -0.317247061429706 -0.945991064489170
2.354435835879885 -11.502513332052626 68.841173521047878 0.064552300401934 -0.304917000247721 -0.950188730449246
2.492298511147618 -11.011685887468730 68.745157966950899 0.063014736760411 -0.291816800118441 -0.954396195570608
2.531226146198717 -10.632210770432817 68.597842507684319 0.062893415147467 -0.277240240804573 -0.958739937214316
2.664811215513788 -10.115138646448610 68.463897394464524 0.061386739554143 -0.264179830641802 -0.962517888295579
2.843535069563878 -9.679423395711147 68.401955449229774 0.059173589521494 -0.249601901996451 -0.966538864621023
2.766858767002674 -9.139417829921531 68.220135513167051 0.060616790803089 -0.236557671216467 -0.969724740769965
2.788741314771350 -8.524321871231470 68.075591409599056 0.060615926349888 -0.224238150146714 -0.972647398336892
2.804881375435214 -8.040408147565392 68.008904381661040 0.060645266531278 -0.209726529666159 -0.975877520184546
2.668020036765721 -7.516171281026820 67.847332154020776 0.062934227076796 -0.195839877671617 -0.978614339449311
2.580923862892625 -6.968732338840537 67.731223577360808 0.064469450052258 -0.181986348850637 -0.981185333584830
2.537356414393279 -6.453917677725810 67.670360254923665 0.065327716028590 -0.167391078968952 -0.983723800769351
2.551335451851739 -5.775905267109659 67.572395521405042 0.065352509819814 -0.155074321413426 -0.985738811399052
2.573669560917011 -5.139937908603192 67.470157162437133 0.065255166726438 -0.142055512976091 -0.987705418861618
2.644372046196588 -4.598798975051574 67.371323617825738 0.064446569028991 -0.127551799984552 -0.989735913292577
2.656892686167532 -4.055263880022527 67.314100146847636 0.064433013902378 -0.112880926793010 -0.991517162274969
2.715945306393244 -3.556274657628860 67.249257028471533 0.063732162067741 -0.097474159538785 -0.993195348227316
2.571797233102146 -3.194044356602147 67.226219289682390 0.065977996255331 -0.079889120334337 -0.994617832366953
2.577175426871566 -2.577175426871531 67.175317932958237 0.066015630252385 -0.066015630252386 -0.995632398591348
2.528116089524477 -2.098697525125958 67.174940500910907 0.066802164522705 -0.049993361146329 -0.996512987700800
2.534502356238558 -1.520635038521520 67.097184753787516 0.066826387929283 -0.035452741291105 -0.997134563141440
2.536163693201922 -0.842208253969844 67.122899754698949 0.066801698718949 -0.022314485748702 -0.997516715034908
2.541054977868913 -0.369506772298019 67.078621901300792 0.066788561983208 -0.006124397258694 -0.997748354920434
2.541050296410745 0.263988917059697 67.077890900012378 0.066788631616678 0.007693902765734 -0.997737481779152
2.536162904059342 0.786865182200651 67.121638848168871 0.066801710446436 0.023136941860594 -0.997497976640940
2.629787571275525 1.419238526840224 67.159991084133551 0.065352077635107 0.036926673692053 -0.997178783728783
2.632290810572804 2.102094330050767 67.182013125908583 0.065256774802362 0.049942970923442 -0.996617907223091
2.683098892677812 2.683098892678122 67.189196035492117 0.064445695973354 0.064445695973349 -0.995838091529452
2.676188174676282 3.246278108397676 67.237237308400267 0.064433523085127 0.079116317378345 -0.994780844923809
2.715840422373759 3.755829729228997 67.268536185462182 0.063733711085899 0.094526957181672 -0.993480079537176
2.551943793765378 4.107692405530383 67.313146696648019 0.065978880633887 0.112108669825742 -0.991503118230196
2.537576947215668 4.705545337479771 67.377957018864180 0.066015470145208 0.125983614845310 -0.989833362991981
2.468203550097155 5.143337307470578 67.463595373287390 0.066799098959198 0.142005748682908 -0.987609359878310
2.454292706954560 5.886151912557905 67.522285937075878 0.066826650504387 0.153600497699549 -0.985870724734646
2.435800818286802 6.605129771965762 67.689098694925036 0.066804029389638 0.165192909260565 -0.983996201408999
2.474137668181578 7.022134284026540 67.734006608199209 0.066016403474119 0.181212743966007 -0.981225649836292
2.457126703524121 7.568151285604184 67.843824151397683 0.065976104088791 0.195090130021575 -0.978563740825006
2.490935769776404 7.950432677976240 67.907741705803275 0.065206293698458 0.211199444521381 -0.975265570957968
2.467488717271178 8.417682124189330 68.030128891089788 0.065205904882538 0.225761792767691 -0.971997840992853
2.547329361481458 8.974417111592231 68.165587534830237 0.063737322509148 0.238903097205512 -0.968949360836251
2.630339343266099 9.520481150758517 68.347318695901336 0.062186105083141 0.251847800611014 -0.965766831933041
2.560532099061874 10.010626177518976 68.428393096795119 0.062852775213526 0.265649146948981 -0.962018741695419
2.531030741176258 10.520024366251175 68.565289120749171 0.062896146175035 0.278808184958055 -0.958284963252958
2.492207431347252 10.952165390536411 68.726924742687515 0.063016001230775 0.292643129383085 -0.954143061817125
2.350580337851527 11.484250177873690 68.898196269055120 0.064552057125203 0.304916560779566 -0.950188888002415
2.159490404056982 12.060760815451843 69.068114479590037 0.066745576050733 0.316419909364956 -0.946268180293054
2.124189568372098 12.565129111096329 69.212457374922522 0.066789988180589 0.328754878030539 -0.942050597181469
2.192469087552889 12.988277345834110 69.385386311506224 0.065380096101163 0.341750745225860 -0.937513664525148
2.106375215135948 13.509576366617562 69.569816784294289 0.066061365323461 0.353241765706002 -0.933196737549219
2.016244539457285 14.013891932165997 69.735332075744040 0.066786595559232 0.364793688478279 -0.928689999676975
2.141639933853578 14.370939309194984 69.908747929668422 0.064600476498169 0.377828123805060 -0.923619341123906
2.102847616224933 14.764836709311879 70.070218993175303 0.064600896366169 0.390174508987916 -0.918471870404710
2.725192335563509 -14.715693160103513 70.107636540294848 0.076803529177287 -0.390204905639268 -0.917519127604958
2.771888597016569 -14.328398113994044 69.949926902393599 0.076795428083148 -0.377791213375623 -0.922700526347363
2.817636059418202 -13.969645895915050 69.788346899615874 0.076799813064510 -0.364799948199507 -0.927913135216273
2.858859617551056 -13.574502556705092 69.660940067330699 0.076803138910526 -0.351804572697133 -0.932917370661989
2.900591166383678 -13.006036579389168 69.455082096544885 0.076799660510135 -0.340957957920017 -0.936936221456157
2.884963261659374 -12.409513497413474 69.223976154490444 0.077575577365683 -0.330333421695699 -0.940670962827700
2.924322300445816 -11.927049525372805 69.025823681207228 0.077610235449065 -0.317990424019537 -0.944912028490174
2.960578049733785 -11.360253669033405 68.850155516742504 0.077623976164616 -0.306373106393366 -0.948741291397857
2.993798310924589 -10.970774692278127 68.780225507720289 0.077615408025993 -0.291898479663505 -0.953294878831882
3.034204938870604 -10.594367798788941 68.634461393919722 0.077571439390671 -0.277304063083732 -0.957645617328306
3.121447507716675 -10.079924181322802 68.499531834910812 0.076804245505731 -0.264229134297224 -0.961396938033836
3.154024267778149 -9.664629329635961 68.372121338166124 0.076799742089819 -0.249599331785459 -0.965298903546041
3.181752604446281 -9.112526179303813 68.256024132525297 0.076798600759951 -0.236536452684776 -0.968582717929974
3.209230594457382 -8.495768817919435 68.111723759711708 0.076801018478714 -0.224261605792049 -0.971497985447321
3.183277124211926 -8.032899747374886 67.984902078692514 0.077569503595528 -0.209653767062726 -0.974693936612079
3.101668946381698 -7.600875903849584 67.904947495200375 0.079079640800839 -0.194281844437011 -0.977753023688990
3.119258800380261 -7.002810470104585 67.784885107603756 0.079168347066084 -0.181177722775060 -0.980258642192390
3.036095848567021 -6.539467099884885 67.727926830238914 0.080650909177666 -0.165858117836528 -0.982846130173254
3.059439796249269 -5.761789253150770 67.552934547489841 0.080663317355352 -0.155144450471494 -0.984593128516103
3.129972925721010 -5.116302719130584 67.514360024223649 0.079844762155180 -0.142151794254997 -0.986619319366121
3.198662715842945 -4.582530876616804 67.417367338163061 0.079118452619989 -0.127565905900912 -0.988669413963382
3.215280321649157 -4.039402177212171 67.360669391980551 0.079083512400395 -0.112914980485044 -0.990452424525519
3.328603319811266 -3.644539345904059 67.311104245833249 0.077622684360736 -0.096000451925342 -0.992350055223843
3.239067817065052 -3.239067817065001 67.285205338465872 0.079082590207280 -0.079082590207281 -0.993726264044689
3.194044356602040 -2.571797233102273 67.226219289682390 0.079889120334339 -0.065977996255330 -0.994617832366953
3.147348520214977 -2.047880071226263 67.223026262222149 0.080651584181623 -0.050657040260236 -0.995454261250143
3.100916749324759 -1.421843605784903 67.139888350731269 0.081483952687661 -0.036855160869531 -0.995993003274459
3.050294732865928 -0.740204389216770 67.162540490778198 0.082234909763152 -0.023787948535577 -0.996329038581489
3.056012724273669 -0.416010321074044 67.120954744714169 0.082223270612121 -0.005423009338173 -0.996599179580018
3.108046430688144 0.311953369271856 67.124580572410480 0.081450684028387 0.006968027182304 -0.996653015180557
3.104881346663018 0.685640119092845 67.165698779430954 0.081425139494689 0.024597387344714 -0.996375890512253
3.156370621438665 1.421861726730338 67.144402748116221 0.080661316993938 0.036854892052658 -0.996059972528055
3.202042681481040 2.102563251957494 67.230195440506733 0.079841660277195 0.049847278958130 -0.995560424115308
3.246278108397539 2.676188174676434 67.237237308400267 0.079116317378347 0.064433523085124 -0.994780844923809
3.239067817064734 3.239067817065082 67.285205338465857 0.079082590207285 0.079082590207280 -0.993726264044689
3.328603319811332 3.644539345903969 67.311104245833249 0.077622684360735 0.096000451925343 -0.992350055223843
3.215280321649225 4.039402177212120 67.360669391980551 0.079083512400394 0.112914980485045 -0.990452424525519
3.146057409630973 4.687910222421607 67.426650939431411 0.079889904536868 0.126020527607837 -0.988805557111474
3.175200091692599 5.272437004778114 67.540315252733890 0.079183836158226 0.139870129990090 -0.986998615413326
3.161949540809636 5.920739333139123 67.586105893346783 0.079169224008022 0.152827731626015 -0.985076605354129
3.144396207725182 6.539620620509240 67.736752541537456 0.079079288815481 0.165855889994061 -0.982974206088194
3.176515706762422 6.949610178932355 67.779631247337846 0.078340336850869 0.181947068995917 -0.980182664458971
3.203961710279108 7.498433849662897 67.892709925030772 0.077606742832554 0.195756892013493 -0.977576816775101
3.179470579368391 7.924980490361220 67.961296169141093 0.077624077715149 0.211200996553961 -0.974355500632847
3.152366562055904 8.438801308028513 68.094028119652421 0.077612087262075 0.225074150505940 -0.971245587215125
3.127377644337718 9.003839714992782 68.225055349173473 0.077570205132145 0.238078760962214 -0.968143257402774
3.154024267777990 9.664629329635833 68.372121338166068 0.076799742089821 0.249599331785461 -0.965298903546041
3.121447507716510 10.079924181322774 68.499531834910783 0.076804245505733 0.264229134297224 -0.961396938033836
3.089268434686599 10.483636232939162 68.606740269559239 0.076803147276593 0.278849082838856 -0.957258828932039
3.052302194496972 10.912140161862265 68.766983763020747 0.076804543388815 0.292711155067744 -0.953111348066816
3.020541931516620 11.360416059542292 68.855087783819457 0.076797685937486 0.306370868684824 -0.948809257045879
2.983655145789966 11.986582656582520 69.050675962818346 0.076798013062423 0.317175459868822 -0.945252237684029
2.941630817231166 12.522860798556263 69.268323167918794 0.076805533126360 0.328793167569558 -0.941273585649121
2.900591166383908 13.006036579389100 69.455082096544885 0.076799660510132 0.340957957920018 -0.936936221456157
2.858859617551063 13.574502556704967 69.660940067330642 0.076803138910525 0.351804572697134 -0.932917370661988
2.817636059418192 13.969645895915079 69.788346899615888 0.076799813064510 0.364799948199507 -0.927913135216273
2.771888597016416 14.328398113994147 69.949926902393628 0.076795428083150 0.377791213375621 -0.922700526347363
2.725192335563389 14.715693160103481 70.107636540294834 0.076803529177288 0.390204905639269 -0.917519127604958
3.463489135747718 -14.731494336223047 70.171378883367595 0.087452774915096 -0.389386589099398 -0.916913352716158
3.509441630126002 -14.392023867208611 70.032532169168434 0.087538632554642 -0.376356198245639 -0.922330201095330
3.616659912423893 -13.925371196539626 69.832971880595196 0.086812559240357 -0.364806568478168 -0.927027371307516
3.499821509016405 -13.535022463634832 69.692803897975892 0.089001584315866 -0.351767984173889 -0.931846555662199
3.490985335033006 -12.964875892872460 69.481781417965280 0.089767874275650 -0.340961267436061 -0.935781567918724
3.533094278903523 -12.377612390212430 69.258984458014481 0.089854235803778 -0.330228430467882 -0.939614495428225
3.569289487103561 -11.870278558921985 69.115905443297521 0.089948935038870 -0.317984042620210 -0.943819547225147
3.456639904519124 -11.304649447254878 68.926582108197906 0.092090860418981 -0.306379389041170 -0.947444427604095
3.497745305804416 -10.938365391439575 68.801943534520376 0.092133730374922 -0.291862247247273 -0.952012502207284
3.538899745636304 -10.558479262345145 68.655632651402726 0.092176490519065 -0.277340447661998 -0.956339777843749
3.574816264559493 -10.051275452611069 68.518986892709691 0.092215689161279 -0.264186276410101 -0.960053060007142
3.451050206588700 -9.619928196128008 68.434834232246303 0.094426134254489 -0.249596138626560 -0.963735167332014
3.592602915904393 -9.082477619421720 68.271645929603011 0.092982675791126 -0.236560028057491 -0.967157471732583
3.626009695960331 -8.470297183361124 68.129252861407451 0.092983629560582 -0.224241105177828 -0.970087610158158
3.553147440251809 -7.996986344600895 68.056667018499681 0.094424461028860 -0.209627679899887 -0.973211311575857
3.585212086945063 -7.682617262848618 67.948126386617176 0.094452176413036 -0.192771780036674 -0.976687169564714
3.704631987565018 -7.023656766862917 67.886564477339761 0.093056656749387 -0.180406652720858 -0.979180217472086
3.635999895531669 -6.618759722252316 67.777613998061440 0.094455310799194 -0.164421125275209 -0.981857366334368
3.660345181343208 -5.732325931918089 67.645655186240688 0.094430946629696 -0.155166798489343 -0.983364663268508
3.681436025001681 -5.000014188364171 67.529846358924019 0.094453887308509 -0.143599355384914 -0.985118108809978
3.699219723195784 -4.519185036892020 67.437297377539608 0.094525402968880 -0.128269140142116 -0.987224379703405
3.615838089995526 -3.926288302644025 67.366144707432312 0.095999000587179 -0.114376364264729 -0.988788268126117
3.627301919105276 -3.627301919105347 67.380307018549303 0.095999824744813 -0.095999824744812 -0.990741170688859
3.644539345903989 -3.328603319811221 67.311104245833235 0.096000451925343 -0.077622684360737 -0.992350055223842
3.556274657628907 -2.715945306393232 67.249257028471533 0.097474159538784 -0.063732162067741 -0.993195348227316
3.557387201278773 -2.194598259740206 67.247731858743066 0.097544165539116 -0.048398399708201 -0.994053686012462
3.561629549608272 -1.416864676714007 67.221440343297346 0.097567990093087 -0.036830675000533 -0.994547127434492
3.569133856013653 -0.587342317668818 67.185011966651331 0.097543553146547 -0.026009294866447 -0.994891336689639
3.573908929371082 -0.362131464920284 67.207127789271468 0.097472842745875 -0.006206405080404 -0.995218832952339
3.673450982184080 0.262622036802086 67.216108500346806 0.095998800796919 0.007679963915266 -0.995351821417841
3.673451263506780 0.535223101385352 67.193775388789618 0.095998796631027 0.026781088384639 -0.995021107489851
3.667662995060194 1.416899462157692 67.231759404161593 0.095999215933419 0.036830160346831 -0.994699798848374
3.661842987435953 2.246842568088723 67.260422910173219 0.096000103659483 0.047626126118422 -0.994241284703226
3.655998104039234 2.815653798473797 67.265292491408488 0.096001357199243 0.062259580586711 -0.993432173850369
3.644539345903935 3.328603319811174 67.311104245833235 0.096000451925344 0.077622684360738 -0.992350055223842
3.627301919104987 3.627301919104870 67.380307018549232 0.095999824744817 0.095999824744819 -0.990741170688858
3.615838089995924 3.926288302643603 67.366144707432312 0.095999000587173 0.114376364264735 -0.988788268126117
3.598507272083419 4.619919302517836 67.440592085652028 0.095999747151465 0.126794476613705 -0.987272611413439
3.628442986012953 5.158793787587179 67.547700617798881 0.095226944040657 0.141283095731770 -0.985378564811071
3.608265365458126 5.895952308943071 67.666251851799558 0.095188030739088 0.152788162393617 -0.983664076926872
3.586365355894303 6.622263854176197 67.773407527626745 0.095174339332257 0.164370362825204 -0.981796429489015
3.562439284914555 6.978605595937474 67.803286636554589 0.095189991556019 0.181213287195937 -0.978826138827120
3.530996881835101 7.571485433829588 67.920830988163985 0.095231466410305 0.194369190256870 -0.976294825185626
3.442982220047930 7.887060697482186 68.022113926730114 0.095999825253140 0.211199618225623 -0.972717201869442
3.517514338778816 8.415817450216915 68.106148119295639 0.094528487273547 0.225016838242675 -0.969758623370292
3.489040546262641 8.978748261356003 68.236151367313070 0.094449772683629 0.238029490560193 -0.966654644670818
3.451050206588480 9.619928196127947 68.434834232246260 0.094426134254493 0.249596138626560 -0.963735167332013
3.574816264559423 10.051275452611094 68.518986892709691 0.092215689161280 0.264186276410101 -0.960053060007142
3.644553450017069 10.452565425574619 68.634934713478629 0.090704785485206 0.278815776214311 -0.956051465572902
3.609772431049143 10.882408516482528 68.795516099119965 0.090583611027409 0.292636522533797 -0.951923565782759
3.571286489329490 11.304948613533753 68.937726161498816 0.090514962345986 0.306375276789914 -0.947597610467338
3.682449959421922 11.927250372920582 69.145761904543050 0.088403660256426 0.317206057996442 -0.944227255285307
3.640882869008115 12.485784949761126 69.307124424710409 0.088391902469026 0.328760887942462 -0.940267594962833
3.490985335033083 12.964875892872506 69.481781417965294 0.089767874275649 0.340961267436061 -0.935781567918724
3.499821509016409 13.535022463634704 69.692803897975836 0.089001584315866 0.351767984173891 -0.931846555662199
3.616659912423883 13.925371196539459 69.832971880595125 0.086812559240357 0.364806568478170 -0.927027371307515
3.509441630125988 14.392023867208668 70.032532169168448 0.087538632554643 0.376356198245639 -0.922330201095331
3.463489135747658 14.731494336223086 70.171378883367595 0.087452774915097 0.389386589099398 -0.916913352716158
4.070861582439053 -14.744063290869654 70.210083397671198 0.099776756915342 -0.388613003380696 -0.915982823192057
4.127255087053419 -14.296527323122945 70.027675612962355 0.099822418316194 -0.377018049663078 -0.920810987678663
4.288071795109138 -13.859654609219536 69.912303665320550 0.098406544893271 -0.364807249248847 -0.925868145481665
4.183314512102279 -13.548157790311205 69.737128865113775 0.100593184993962 -0.351029131086488 -0.930945519491574
4.128952178981410 -12.874536006141721 69.482305323516343 0.102054562606139 -0.341625843671619 -0.934278678546677
4.225545122969711 -12.434696149378446 69.382048897758580 0.101410270361758 -0.328651425776445 -0.938991052886163
4.167065640977881 -11.939318388081894 69.167685011638341 0.102954115324092 -0.316522585029558 -0.942981390751716
4.056579637382104 -11.321660070514607 68.958553171503937 0.105148488577163 -0.305641415252990 -0.946322947324056
4.104060561935887 -11.012449722205389 68.851569623676824 0.105189797459098 -0.290355025249269 -0.951119900865822
4.038708763979561 -10.512295714456403 68.719995626906396 0.106711702598589 -0.277288513068551 -0.954842234638133
4.023264105539414 -10.009800878563382 68.579196608367440 0.107553960789107 -0.264101315463824 -0.958479337643151
4.012357621043265 -9.589590245214989 68.446170293911479 0.108342364388538 -0.249601571134332 -0.962268667143420
4.002733195060955 -9.039222057288814 68.326865031489447 0.109029487140583 -0.236569562564804 -0.965477815903482
4.042154798261560 -8.430960695624050 68.186389367595041 0.109027058681131 -0.224226520442777 -0.968419107621006
4.080288674232977 -8.073032650369418 68.088076638338038 0.109042988233648 -0.208182974298795 -0.971992528741442
4.111524444865745 -7.701677638595825 68.028266310558195 0.109064165665007 -0.192001037439486 -0.975315646029508
4.097302884800238 -7.002451501644858 67.884057421885359 0.109740059254136 -0.180400266355006 -0.977452230696693
4.170460604611486 -6.535500072561268 67.840461549875869 0.109063565892046 -0.165196502347041 -0.980211841495100
4.103250762117820 -5.715460687661373 67.648350277275810 0.110513702479788 -0.155141333802621 -0.981691340549642
4.065719005072591 -5.129362557049143 67.608244269459618 0.111349206968244 -0.141341298457018 -0.983678805026329
4.040285376044572 -4.649957348578511 67.508681428273960 0.112110740603817 -0.126022669753562 -0.985672089768929
4.005315926720855 -4.005315926720912 67.433389130269546 0.112918080416910 -0.112918080416909 -0.987167166304634
3.926288302644033 -3.615838089995806 67.366144707432341 0.114376364264729 -0.095999000587174 -0.988788268126117
4.039402177212023 -3.215280321649216 67.360669391980537 0.112914980485046 -0.079083512400394 -0.990452424525519
4.055263880022732 -2.656892686167619 67.314100146847665 0.112880926793007 -0.064433013902377 -0.991517162274969
4.111252744173480 -2.087681065859512 67.317183975305909 0.112155348014544 -0.049846217516445 -0.992439687089870
4.180131242419358 -1.410843034775700 67.242741402368210 0.111336859512341 -0.036854334148934 -0.993099119810489
4.231773485314974 -0.678175701412435 67.274178887032420 0.110574162083666 -0.024598645674015 -0.993563415847473
4.240149311276959 -0.309864375212057 67.233703061272593 0.110548421119335 -0.006968006279201 -0.993846312805212
4.240149311276787 0.309864375211808 67.233703061272578 0.110548421119338 0.006968006279205 -0.993846312805212
4.231773485315145 0.678175701412439 67.274178887032448 0.110574162083663 0.024598645674015 -0.993563415847474
4.180131242419287 1.410843034775683 67.242741402368196 0.111336859512343 0.036854334148934 -0.993099119810489
4.111252744173602 2.087681065859572 67.317183975305923 0.112155348014542 0.049846217516444 -0.992439687089871
4.055263880022641 2.656892686167430 67.314100146847650 0.112880926793009 0.064433013902380 -0.991517162274969
4.039402177212100 3.215280321649274 67.360669391980551 0.112914980485045 0.079083512400393 -0.990452424525519
3.926288302643454 3.615838089995796 67.366144707432284 0.114376364264737 0.095999000587175 -0.988788268126116
4.005315926720934 4.005315926720990 67.433389130269560 0.112918080416909 0.112918080416908 -0.987167166304634
4.040285376044557 4.649957348578315 67.508681428273945 0.112110740603817 0.126022669753565 -0.985672089768929
4.065879890335505 5.237264758127846 67.623678696018132 0.111346866137996 0.139771355185103 -0.983903371104585
4.151455713077563 5.980032656753570 67.695037846850326 0.109814167565265 0.151301949546458 -0.982368855708175
4.227748972299950 6.654969374926896 67.805647047799184 0.108329732866234 0.163612156544803 -0.980558887169909
4.149086034722868 6.945293105420113 67.879277960954795 0.108994441544667 0.181223281419437 -0.977383411964792
4.162649374371139 7.481776849271021 67.990308355523766 0.108331191765288 0.195153736928014 -0.974771445957330
4.129411216948121 7.861597126396461 68.047944004103755 0.108341738516087 0.211201325818751 -0.971419614619611
4.042154798261753 8.430960695624295 68.186389367595126 0.109027058681128 0.224226520442774 -0.968419107621007
4.002733195060796 9.039222057289017 68.326865031489476 0.109029487140585 0.236569562564801 -0.965477815903483
4.012357621043416 9.589590245215021 68.446170293911493 0.108342364388536 0.249601571134331 -0.962268667143420
4.023264105539518 10.009800878563347 68.579196608367440 0.107553960789105 0.264101315463825 -0.958479337643151
4.038708763979709 10.512295714456041 68.719995626906311 0.106711702598587 0.277288513068556 -0.954842234638131
4.104060561935911 11.012449722205229 68.851569623676781 0.105189797459098 0.290355025249272 -0.951119900865821
4.056579637381914 11.321660070514643 68.958553171503937 0.105148488577166 0.305641415252990 -0.946322947324055
4.167065640977831 11.939318388081951 69.167685011638341 0.102954115324092 0.316522585029558 -0.942981390751716
4.225545122969899 12.434696149378279 69.382048897758537 0.101410270361755 0.328651425776448 -0.938991052886162
4.128952178981415 12.874536006141724 69.482305323516343 0.102054562606139 0.341625843671619 -0.934278678546677
4.183314512102492 13.548157790311109 69.737128865113760 0.100593184993960 0.351029131086489 -0.930945519491573
4.288071795109024 13.859654609219451 69.912303665320508 0.098406544893272 0.364807249248848 -0.925868145481665
4.238040392381730 14.407824745860747 70.085055699442506 0.098365675313850 0.375554572704001 -0.921565492431854
4.189436501483343 14.803973011336929 70.248280698394012 0.098229791239617 0.387831402330895 -0.916481157187137
4.431196907310456 -14.677285698977780 70.237214322393712 0.115190070189894 -0.388571707679581 -0.914189956037924
4.499619378357595 -14.227834072594035 70.056089066396055 0.115199142353960 -0.377028937785727 -0.919009432853155
4.561808587774301 -13.794674450327516 69.932455534776494 0.115199384492346 -0.364798197247622 -0.923932560903376
4.631326153242810 -13.487237785366474 69.778371873562492 0.115194085054697 -0.350998964104854 -0.929263175836496
4.692712664561881 -12.919421109328063 69.575262570529077 0.115205061508224 -0.340198912014379 -0.933269786325004
4.748431452878565 -12.542421336240981 69.491445804385194 0.115199386352389 -0.326398388872135 -0.938186118595723
4.753862379649572 -11.942507860861145 69.246420385965536 0.115971543864415 -0.315704367457349 -0.941743783298865
4.699166534557008 -11.320055588663365 69.040081696522932 0.117482319855482 -0.304910258882089 -0.945107210082449
4.643011179257488 -10.968079260631171 68.906665631708037 0.119033193065213 -0.290246255193177 -0.949519989413091
4.630528593650359 -10.523064812135868 68.796490910048163 0.119899118591125 -0.276447473151270 -0.953520317533585
4.575360645914039 -10.067925059428354 68.662347061456117 0.121370268424452 -0.262628257919582 -0.957233334190103
4.577380523784639 -9.544954875525981 68.502274767032418 0.122056786933324 -0.249597463532100 -0.960626486706386
4.669950543723521 -8.996524667994105 68.396059953797433 0.121371380638146 -0.236571181564565 -0.964003663901303
4.713738426607776 -8.390447240473918 68.256945999601911 0.121370046371897 -0.224228683376202 -0.966949227930329
4.758167978485927 -8.035595890310356 68.160446347272114 0.121359561747317 -0.208182459201049 -0.970531771995901
4.796302926032997 -7.667329221722927 68.102436066829711 0.121334864492593 -0.191998009127371 -0.973865809621475
4.777121098885887 -7.072503348121048 67.976439473522959 0.122133116488785 -0.178927856554344 -0.976252182586859
4.754450430610790 -6.559471261958159 67.912400544975071 0.122882253485938 -0.164422521084333 -0.978705873252271
4.734911630145048 -5.692232318675785 67.717043833825301 0.123698630335142 -0.155073348984284 -0.980128004542268
4.654099802556004 -5.058211825462745 67.663901913098513 0.125194459402757 -0.142004617247675 -0.981917020941786
4.630040299753359 -4.630040299753237 67.571310786788160 0.125982375131013 -0.125982375131014 -0.984000448329520
4.649957348578367 -4.040285376044569 67.508681428273945 0.126022669753564 -0.112110740603817 -0.985672089768929
4.619919302517678 -3.598507272083146 67.440592085651971 0.126794476613707 -0.095999747151469 -0.987272611413438
4.687910222421797 -3.146057409631270 67.426650939431468 0.126020527607834 -0.079889904536864 -0.988805557111475
4.705618209699644 -2.644461219549116 67.385009635622225 0.125982544297052 -0.064445259004714 -0.989936971288706
4.766454850726463 -2.124596210822868 67.391950550494087 0.125199164082834 -0.049171501090680 -0.990912373922865
4.775612506487374 -1.497179781349546 67.372494472971411 0.125174944716889 -0.035453572018403 -0.991501022413119
4.781484987490545 -0.772886099384036 67.337496844907022 0.125199072212542 -0.023138369430195 -0.991861788848240
4.788160953802292 -0.259349903376105 67.294159915571427 0.125211396818483 -0.007694237013473 -0.992100249381858
4.788160953802151 0.259349903376086 67.294159915571413 0.125211396818485 0.007694237013474 -0.992100249381858
4.781484987490554 0.772886099383853 67.337496844907008 0.125199072212542 0.023138369430198 -0.991861788848240
4.675530845836684 1.397147968563877 67.356131902266412 0.126647816838312 0.036925710543578 -0.991260219312235
4.661440812477748 2.072061197259453 67.375971197067315 0.126743261101636 0.049943961222475 -0.990677417983639
4.598798975051826 2.644372046196636 67.371323617825780 0.127551799984548 0.064446569028990 -0.989735913292578
4.582530876616770 3.198662715842901 67.417367338163046 0.127565905900913 0.079118452619990 -0.988669413963382
4.519185036891841 3.699219723195869 67.437297377539579 0.128269140142119 0.094525402968879 -0.987224379703405
4.649957348578276 4.040285376044590 67.508681428273931 0.126022669753566 0.112110740603817 -0.985672089768929
4.630040299753420 4.630040299753281 67.571310786788175 0.125982375131012 0.125982375131014 -0.984000448329520
4.600959955551254 5.164775220465190 67.672432437155479 0.125965607958914 0.140458203156796 -0.982040813193375
4.630510626658346 5.956740422941005 67.745114642263829 0.125209717373595 0.151244891837589 -0.980534297905107
4.646239478582874 6.669226929410950 67.917077908816438 0.124441713812035 0.162840799403214 -0.978773280138585
4.668614349030488 7.015851649542977 67.952367223467846 0.123691449820042 0.179741467046632 -0.975906465940943
4.690913172803260 7.448601610986184 68.045726821286138 0.122841939470853 0.195125817088715 -0.973054866599258
4.709157554869895 7.823824612062056 68.108525811556063 0.122057417700842 0.211197855445507 -0.969792479162125
4.713738426607856 8.390447240473936 68.256945999601911 0.121370046371896 0.224228683376201 -0.966949227930329
4.669950543723667 8.996524667994077 68.396059953797447 0.121371380638144 0.236571181564565 -0.964003663901303
4.577380523784777 9.544954875526180 68.502274767032489 0.122056786933322 0.249597463532097 -0.960626486706387
4.575360645914044 10.067925059428351 68.662347061456117 0.121370268424452 0.262628257919582 -0.957233334190103
4.630528593650389 10.523064812135903 68.796490910048178 0.119899118591124 0.276447473151270 -0.953520317533586
4.643011179257440 10.968079260631150 68.906665631708023 0.119033193065214 0.290246255193177 -0.949519989413091
4.699166534556856 11.320055588663227 69.040081696522876 0.117482319855485 0.304910258882091 -0.945107210082449
4.753862379649640 11.942507860860967 69.246420385965493 0.115971543864414 0.315704367457351 -0.941743783298864
4.748431452878503 12.542421336241119 69.491445804385222 0.115199386352390 0.326398388872133 -0.938186118595723
4.692712664561855 12.919421109328074 69.575262570529077 0.115205061508225 0.340198912014379 -0.933269786325004
4.631326153242727 13.487237785366194 69.778371873562364 0.115194085054698 0.350998964104858 -0.929263175836494
4.561808587774449 13.794674450327602 69.932455534776551 0.115199384492344 0.364798197247621 -0.923932560903376
4.558388673375022 14.345121439115026 70.111429013285417 0.114428195285648 0.375490339248130 -0.919735393064219
4.605673922706432 14.852555375761668 70.333195328580786 0.112919121141397 0.386290441549373 -0.915439220728632
4.897139026387970 -14.715786092352246 70.303934044343322 0.129159991866148 -0.387163536003737 -0.912919543492317
4.866647917119405 -14.160497002459337 70.064470976790147 0.130573250659346 -0.377022025880653 -0.916954207260701
4.829475019317965 -13.729789650420621 69.928425830483619 0.131992552796653 -0.364787931324362 -0.921687436806163
5.073497574732130 -13.421131008264222 69.799428888523948 0.129802742464034 -0.351037850295414 -0.927320697336574
5.143286185483580 -12.860327379156722 69.600650822304502 0.129806822086397 -0.340170247836789 -0.931361579316265
5.043077113166142 -12.484350800851615 69.496066121915106 0.131995594435473 -0.326389214803345 -0.935973954503907
5.111480301410268 -11.890426784840312 69.261450292603953 0.132034590945458 -0.315639983925650 -0.939647948617609
5.165447623880503 -11.378227214622033 69.104514400209439 0.132163080378526 -0.303366417934971 -0.943663995633066
5.058103800635321 -11.062008026084655 69.034977507784035 0.134399755519361 -0.287999477735412 -0.948152417357287
5.122801898368838 -10.530608824545496 68.844771729398886 0.134397180998634 -0.275655207734750 -0.951814900171421
5.178880605293992 -10.069941960778777 68.722863000859078 0.134402300023724 -0.261942817956073 -0.955678806853832
5.227447537272056 -9.484902281526402 68.614800044259425 0.134399754894870 -0.249599548825627 -0.958976939821935
5.179178754443690 -9.010227101836197 68.445640866229255 0.135871942156000 -0.235779880474677 -0.962261224043712
5.222550326198519 -8.453287365122382 68.317461931376812 0.135950256800925 -0.222770420162182 -0.965344947454809
5.262121090517791 -7.883319477500823 68.234696534962225 0.135967488427447 -0.209634319887884 -0.968280070029264
5.312780187764787 -7.578317963093303 68.131533164123184 0.135943086752749 -0.192774668904674 -0.971780532935718
5.193947752955701 -7.035194836683742 68.062815266107648 0.138110809317938 -0.178847218596197 -0.974135040304961
5.329645764691048 -6.586170586491452 67.969872785630898 0.136755846418125 -0.163613330652703 -0.976999752560456
5.257558912996426 -5.859138137320810 67.849187701840506 0.138269018996157 -0.152129119611700 -0.978641103444981
5.186782387891746 -5.186782387891670 67.726760243476747 0.139773738777077 -0.139773738777078 -0.980268638637672
5.058211825462914 -4.654099802556068 67.663901913098542 0.142004617247672 -0.125194459402756 -0.981917020941787
5.129362557049101 -4.065719005072616 67.608244269459618 0.141341298457019 -0.111349206968244 -0.983678805026329
5.052936165944143 -3.575423493885975 67.527292163711763 0.142827335288926 -0.096000386668330 -0.985080848485948
5.171731173959898 -3.074546859550428 67.517815045535770 0.141341791992402 -0.080654729511173 -0.986669809228931
5.196187371195272 -2.573717280337262 67.478226394715108 0.141232068932876 -0.065254468154922 -0.987823545523571
5.368012781621065 -1.962723437942307 67.437335963947845 0.138960803906422 -0.051415553043814 -0.988962252000995
5.326822690501631 -1.395467863007859 67.415287343793807 0.139687763239371 -0.036852812813623 -0.989509574985965
5.276813344181782 -0.776245457273154 67.376120046586919 0.140545565679715 -0.023027832271586 -0.989806376474026
5.271757320271254 -0.256043726239545 67.391587119678533 0.140619842511073 -0.007715679062149 -0.990033599525173
5.271757320271268 0.256043726239408 67.391587119678533 0.140619842511073 0.007715679062151 -0.990033599525173
5.276813344181928 0.776245457273197 67.376120046586948 0.140545565679713 0.023027832271585 -0.989806376474026
5.274098958575555 1.290179655938753 67.403819290158083 0.140461632781806 0.038398214355809 -0.989341248938178
5.312714503584161 1.907452713572175 67.426646246152146 0.139771748004338 0.052226093069773 -0.988805488284971
5.139937908603207 2.573669560917214 67.470157162437147 0.142055512976091 0.065255166726435 -0.987705418861618
5.116302719130205 3.129972925721114 67.514360024223606 0.142151794255002 0.079844762155179 -0.986619319366120
5.000014188364254 3.681436025001713 67.529846358924047 0.143599355384912 0.094453887308509 -0.985118108809979
5.129362557049156 4.065719005072762 67.608244269459647 0.141341298457018 0.111349206968241 -0.983678805026330
5.058211825463095 4.654099802556123 67.663901913098584 0.142004617247669 0.125194459402755 -0.981917020941787
5.084873568777471 5.288694659163982 67.726607387596871 0.141248754251303 0.138298673336749 -0.980266426220826
5.150529150318082 6.021452909808104 67.859018258112414 0.139812791716168 0.149787928605105 -0.978782897131291
5.220487276692063 6.643278296819915 67.964044944798999 0.138324891811240 0.162792463751331 -0.976915983107647
5.196811933029013 7.094221950888013 68.012447531592542 0.138188483984687 0.178155393913651 -0.974250788305294
5.317990363032143 7.471940798521086 68.111073383240836 0.135868772457108 0.194291958372257 -0.971488708932261
5.372599073451378 7.773013013220613 68.226149363143008 0.134399757720287 0.211199616670631 -0.968158781937605
5.332125140109188 8.398674149587958 68.320180712670222 0.134401933868741 0.223542120254515 -0.965383364598986
5.284052663281338 8.905217249100282 68.434557099618132 0.134397544449862 0.237256189384222 -0.962105399966514
5.227447537272273 9.484902281526310 68.614800044259425 0.134399754894867 0.249599548825628 -0.958976939821935
5.178880605294143 10.069941960778959 68.722863000859149 0.134402300023722 0.261942817956071 -0.955678806853833
5.122801898368870 10.530608824545762 68.844771729398957 0.134397180998633 0.275655207734747 -0.951814900171422
5.058103800635244 11.062008026084520 69.034977507783978 0.134399755519362 0.287999477735414 -0.948152417357286
5.165447623880333 11.378227214622012 69.104514400209410 0.132163080378529 0.303366417934972 -0.943663995633066
5.111480301410202 11.890426784840269 69.261450292603925 0.132034590945459 0.315639983925651 -0.939647948617609
5.043077113166227 12.484350800851452 69.496066121915064 0.131995594435472 0.326389214803347 -0.935973954503906
5.143286185483577 12.860327379157038 69.600650822304630 0.129806822086397 0.340170247836785 -0.931361579316267
5.073497574732230 13.421131008264403 69.799428888524034 0.129802742464033 0.351037850295411 -0.927320697336575
4.829475019318009 13.729789650420742 69.928425830483661 0.131992552796652 0.364787931324361 -0.921687436806164
4.867201378257450 14.280244781622052 70.113666613101245 0.130566007351689 0.375454851699751 -0.917598044929999
4.956816862188182 14.898156341096893 70.389405547504921 0.128385055678637 0.384795398765136 -0.914029418874236
5.308847934807462 -14.682882146116718 70.380999594085964 0.143655690164305 -0.386386638885220 -0.911080900894317
5.336128671186197 -14.180509630588958 70.170593058619318 0.144424283480937 -0.375580435347828 -0.915467619812385
5.366339288283838 -13.663559815812441 69.943305704130950 0.145166478786537 -0.364795400186556 -0.919701587168060
5.501228954567107 -13.333666495931947 69.857398238168059 0.144418236596913 -0.351080433109099 -0.925141017589300
5.580002500542927 -12.782439221418951 69.664222625093714 0.144407729751328 -0.340120191791130 -0.929227992865062
5.601430717476896 -12.425103990265686 69.519058853135633 0.145167530330822 -0.326395888885319 -0.934019331628855
5.618604299194358 -11.925419701419617 69.372600671103925 0.145877561877020 -0.314142397546726 -0.938101428953400
5.683151757345019 -11.369003256726039 69.201999221667748 0.145952065368926 -0.302500976497536 -0.941908251281717
5.695448703581818 -11.009940298430926 69.071871076577651 0.146743407266998 -0.288002599007660 -0.946319647576074
5.707303838229668 -10.514212648676935 68.947471963243089 0.147429325641041 -0.274969510146384 -0.950082292452020
5.663102837714272 -10.064392740745156 68.812729229927626 0.148900168569449 -0.261148402761675 -0.953745380872178
5.663507542630873 -9.601042289817229 68.665731683319734 0.149766380278393 -0.247354073751328 -0.957280519773034
5.606551228426310 -9.062383300522686 68.538477534362983 0.151319865091407 -0.234256223896277 -0.960326152926481
5.553949463560064 -8.403382037570841 68.370474689589187 0.152827778290944 -0.222720292387398 -0.962828822554417
5.609125823153837 -7.843987480629250 68.230795749185049 0.152825536827263 -0.209656935872197 -0.965757901616207
5.761281774601965 -7.425734037414157 68.183520671249909 0.151314402635367 -0.194285941188143 -0.969204273933901
5.813064713461493 -6.950198919942013 68.091879686244795 0.151223201806403 -0.179601014704611 -0.972046819218341
5.850025891094411 -6.551011476158321 68.056134768026183 0.151213638574783 -0.163554483939861 -0.974876590288299
5.881622738844099 -5.881622738844115 67.959174082882058 0.151281116302370 -0.151281116302370 -0.976845969281041
5.859138137320789 -5.257558912996556 67.849187701840521 0.152129119611701 -0.138269018996155 -0.978641103444981
5.794145772399952 -4.633029273135618 67.720156690028318 0.153598266429296 -0.125173262800179 -0.980173059632773
5.821986741911166 -4.050132190408973 67.659099699699624 0.153595461588867 -0.111284542295618 -0.981847332748507
5.840128381009734 -3.552463903469419 67.652133618415718 0.153599674647336 -0.095999216405445 -0.983458840215376
5.867614438519432 -3.055965685014642 67.569240082917901 0.153602034127395 -0.080713952994977 -0.984830783893279
5.885974639268488 -2.655964769586358 67.535626046457210 0.153603086008636 -0.063882102940774 -0.986065499291243
5.895318819138936 -1.998132998864847 67.528808988035863 0.153601215561319 -0.050717770000514 -0.986830468917666
5.904697968933245 -1.388255559980740 67.511732379926599 0.153598830350545 -0.036828937253463 -0.987446721953000
5.914003991752312 -0.725652038911235 67.480001724145879 0.153597511466077 -0.023687570796205 -0.987849534828662
5.913950999286751 -0.156219613196689 67.496496936472226 0.153598287230468 -0.009149910508027 -0.988091010634932
5.913950999286513 0.156219613196640 67.496496936472198 0.153598287230471 0.009149910508028 -0.988091010634932
5.914003991752585 0.725652038911359 67.480001724145922 0.153597511466073 0.023687570796203 -0.987849534828662
5.904640323444864 1.280847375852483 67.507631829759831 0.153599673490641 0.038399921371179 -0.987386746083952
5.895290177789789 1.941793355745452 67.525885410303445 0.153601634110919 0.051541087889150 -0.986787745291589
5.876775902290937 2.652142254264370 67.594793368845444 0.153602831476427 0.063881951068353 -0.986065548779656
5.867689363500309 3.112466160433045 67.573858608051395 0.153600942085697 0.079890450948360 -0.984898099519770
5.840267200464762 3.660496932545739 67.662613750627330 0.153597656629383 0.094428740622972 -0.983611189862296
5.923260242962730 4.151370610823215 67.686260015856348 0.152125812756309 0.109815402542110 -0.982241474616984
5.900770395513321 4.686478118153525 67.743581943817645 0.152054994999083 0.124399650916869 -0.980512113819911
5.967980377581338 5.257772297637601 67.866047908947095 0.150559204131237 0.138265941185092 -0.978884291200737
5.935598896841705 5.935598896841714 67.975847408854420 0.150505262371112 0.150505262371112 -0.977085631865092
5.896435115139145 6.504561576558880 68.055508776863888 0.150548845220754 0.164219859954750 -0.974867623218219
5.809544988020200 7.058115485319416 68.111183063192840 0.151273447708491 0.178060449888374 -0.972322384913531
5.761319231525437 7.425763467426709 68.183532418611009 0.151313870198643 0.194285522851077 -0.969204440918422
5.716301804911229 7.838798635139813 68.246543081949000 0.151308537793189 0.209730380252798 -0.965980793799703
5.721118057345105 8.400928470270237 68.396232187319171 0.150473622625755 0.222754844806784 -0.963191553123774
5.773674800210854 8.952344074441847 68.537677010309764 0.148978214933293 0.235798037348440 -0.960314936392178
5.774627265712995 9.545697540276418 68.668703400287967 0.148217241520800 0.248125644217532 -0.957321948979339
5.769480722246000 9.957843606326801 68.799996616802474 0.147425769615440 0.262625175241486 -0.953568906677789
5.707303838229606 10.514212648677052 68.947471963243117 0.147429325641042 0.274969510146382 -0.950082292452020
5.695448703581814 11.009940298430958 69.071871076577665 0.146743407266998 0.288002599007659 -0.946319647576074
5.683151757344980 11.369003256726064 69.201999221667748 0.145952065368926 0.302500976497536 -0.941908251281717
5.618604299194578 11.925419701419560 69.372600671103953 0.145877561877017 0.314142397546727 -0.938101428953400
5.601430717477015 12.425103990265555 69.519058853135604 0.145167530330821 0.326395888885321 -0.934019331628854
5.689235062293815 12.892022758847663 69.721113236394260 0.142950712787864 0.338658493279343 -0.929986837887078
5.617888994088180 13.392654355146057 69.897860525147053 0.142873275141197 0.350299240429797 -0.925676870946193
5.486400036307010 13.664179593662670 69.962396373625282 0.143587770725746 0.364787250576428 -0.919952615037808
5.396635147558602 14.239701167972679 70.204363354480250 0.143634896965967 0.374808203940343 -0.915908197710114
5.360419874757378 14.752732870118042 70.418691086881253 0.142988092236150 0.385482422393294 -0.911568816658657
5.764432988479971 -14.594822362214288 70.424179417086165 0.157495380197703 -0.386326334208101 -0.908816355879290
5.743372615516023 -14.035858739935023 70.181906864520315 0.158998275256652 -0.376289390818897 -0.912757274866957
5.727737243724075 -13.576018052742231 69.969992828801423 0.160453699780783 -0.364795280472641 -0.917158118086268
5.865915707901175 -13.196928285416998 69.867952557730106 0.159773389994704 -0.351773223954891 -0.922349208682906
5.952412605006860 -12.752904875924703 69.716965875142535 0.159770474604350 -0.339427537881602 -0.926964045674013
5.987602504169447 -12.346776738299017 69.556221317823798 0.160454633665871 -0.326395784943096 -0.931514950017729
