ply
format ascii 1.0
element vertex 423
property double x
property double y
property double z
property double nx
property double ny
property double nz
end_header
-2.657607592196189 30.108547156533994 82.134471563457396 0.003794675277429 0.117702851450441 -0.993041610004321
-2.222730170514879 30.512985332883488 82.171006073267861 -0.001460005181386 0.131418321475649 -0.991325926809843
-2.205922800257552 30.016610527186206 82.114675830449400 -0.001657971848219 0.155805839923178 -0.987786308558275
-1.834432705113311 30.009972851540805 82.094031487500757 -0.006109119526049 0.174178687159160 -0.984695112000729
-1.109216105862681 -30.096428718949937 82.110202002050585 0.003933862370909 -0.173141673036465 -0.984889072832560
-1.240684227317692 -29.818409898004717 82.021231247724046 0.005530687700947 -0.158304322884258 -0.987374879592200
-1.303831649081552 -29.834288616667926 82.016007694612370 0.006309086672480 -0.139707369109406 -0.990172735658727
-1.238851142201058 -30.053820148149132 82.127291290353014 0.005532597535982 -0.118364524868225 -0.992954797368553
-0.974407907857289 -30.055319094708921 82.058501392384755 0.002342159668453 -0.099744524133516 -0.995010323661753
-0.774071800943023 -30.286061739464035 82.098373736732569 -0.000087166958798 -0.078114004378093 -0.996944429104221
-0.705685018928439 -30.122211444480751 82.135843854891888 -0.000918276595839 -0.061174365725109 -0.998126672194579
-0.407004090730149 -29.432349107479489 82.123782076881511 -0.004551208917303 -0.050606845342582 -0.998708282583990
-0.590851960591308 -29.241039250106198 82.122392637804737 -0.002317123517204 -0.033956562612800 -0.999420623558534
-0.775155135079423 -29.880120904424807 82.047888325297350 -0.000074282326881 -0.007174029196529 -0.999974263562429
-0.901163424666588 -30.476868984925993 82.034878416285679 0.001461467698557 0.019142217975941 -0.999815702818838
-1.486344994409715 -30.136257059706523 82.111568335763536 0.008574668544445 0.052961292225544 -0.998559751134179
-1.542551082043544 -29.935350910063040 82.084366420187450 0.009237969688673 0.088327883874081 -0.996048615704253
-1.405255733481154 -30.112739638485408 82.033342871941258 0.007560956421679 0.109281347855149 -0.993982101925860
-1.039317925322470 -29.793550838925938 82.191407594938411 0.003115633530393 0.123895941554098 -0.992290324700452
-1.221932752393464 -29.631780050612058 82.185397904678084 0.005308791138338 0.140501506452380 -0.990066231835659
-1.592519668973787 -29.312528325836844 82.178743731577185 0.009752009483998 0.155142184467326 -0.987844016487285
-1.740375011307168 -29.723723521767774 82.147711880515416 0.011487902878275 0.178224619975659 -0.983922767762791
-1.766466091689370 -29.762445669136884 82.147207125795205 0.011758158392283 0.196696451475557 -0.980393926790729
-2.196544547969629 -29.165353590304591 82.248045961623063 0.016830711713279 0.207475366753533 -0.978095444899787
-2.388656604727259 -29.237374921577416 82.250406781573048 0.019033825988481 0.225945825003877 -0.973953899130527
-2.599201291396440 -28.757826460272280 82.358006129376420 0.021435577071058 0.237755883271693 -0.971088387329046
-3.210950522037282 -28.798018750155183 82.429900118527854 0.028487519311025 0.255208919570350 -0.966466175618805
-3.083933919218281 28.623389664483824 82.479459573142194 0.026998287246081 -0.253161445239581 -0.967047245552142
-2.680418572782671 29.125640958109994 82.265246078866355 0.022393215101788 -0.242092806958024 -0.969994647787600
-2.221654283022560 29.500910789816928 82.253567913059968 0.017044187469206 -0.228903807712897 -0.973299821477458
-1.695281780852813 29.501390664954403 82.183151173976668 0.010869684633759 -0.211471526518663 -0.977323714757720
-1.112323921051643 29.632600145600321 82.178390337574598 0.003951234288718 -0.195146797298011 -0.980766085900162
-0.650914792229249 29.527022310561719 82.188591829934083 -0.001561087648470 -0.175868634693517 -0.984412406634736
-0.261144628657041 29.660659558883868 82.186450328798543 -0.006247511968084 -0.159212126833440 -0.987224628574156
-0.193980445003900 30.277200538544548 82.029626719923442 -0.007079801747994 -0.148383972737125 -0.988904481252844
-0.389533561991387 30.225390337377849 82.014791474932508 -0.004736022705944 -0.129296824294255 -0.991594625497914
-0.410681735092826 29.975228272606884 82.049880699817336 -0.004490103779319 -0.107615149310637 -0.994182487578060
-0.540597141545189 29.992754005046528 82.022193918388055 -0.002922317649724 -0.089089301822059 -0.996019355414548
-0.958016253124554 29.713823781230449 82.045998182913166 0.002149656489414 -0.066825657074431 -0.997762351731888
-1.024428166715781 29.931763076493962 82.064748860769001 0.002959451949809 -0.050511294590410 -0.998719105035524
-0.918956027801791 29.617115646344541 82.078407304771261 0.001677092044840 -0.027686830426800 -0.999615239371225
-1.143796784052532 29.648393776451353 82.045097815139798 0.004418607971390 0.009998247697119 -0.999940253688480
-0.901226923619363 29.817220742321837 82.080057139258528 0.001461173104608 0.026964185332824 -0.999635332350000
-1.160282962083042 29.993994533202208 82.090236901795549 0.004612790094719 0.043808634134085 -0.999029291734155
-1.178993245829345 29.853997029016188 82.118037079207454 0.004833433537846 0.064433746153649 -0.997910281677087
-1.243962285473153 29.943959673280670 82.069547417844717 0.005618849853954 0.082268249261923 -0.996594382730355
-1.109213494116727 30.044270566334404 82.117266818592412 0.003973870036553 0.099805881905557 -0.994998992107020
-0.841965409499745 30.253001782608212 82.152041741332553 0.000734075800988 0.115956331971851 -0.993254041123595
-0.331757575718415 30.649161012279460 82.187803797587733 -0.005422758164816 0.129775473370980 -0.991528577603905
-0.319007774945919 30.087892007959503 82.124702310049585 -0.005560474257838 0.154948369927108 -0.987906920606876
-0.385523772891057 30.134067151930061 82.055594731818374 -0.004750044737834 0.172814582259872 -0.984942920799644
0.723025198995939 -30.239161501519028 82.135800454029408 0.000698390320308 -0.171429632943277 -0.985196119155924
0.636180989698717 -29.823024322916059 82.083894592088555 0.001745086133782 -0.158134556442728 -0.987416030218797
0.261048458247611 -29.944599219691113 82.152677690664490 0.006271266326129 -0.138175416278588 -0.990387916704816
0.197060607716521 -30.226660631704597 82.146907518397555 0.007063104730788 -0.116274807983260 -0.993191966127404
0.575004017449568 -29.849463583216746 82.037572736011825 0.002500860707535 -0.102240650136816 -0.994756550697367
0.782898617318130 -30.324961436186982 82.101412686282785 -0.000020019639564 -0.077641634047517 -0.996981331952432
1.043448777408320 -30.054526873107651 82.071167732265508 -0.003188602425007 -0.062042115126990 -0.998068438918467
1.237103708990932 -29.553584136790288 82.129423212352805 -0.005543642332372 -0.049132504721023 -0.998776884499000
0.726732338010720 -29.831698390494211 82.047508756033267 0.000664444387438 -0.007764187806286 -0.999969637489741
0.335656054903518 -30.462121920804712 82.109598114956270 0.005422830048637 0.037950248518982 -0.999264915601269
0.457562714702358 -29.957639355445146 82.123236044940796 0.003936364894779 0.050789120217015 -0.998701642283118
0.769314367072545 -29.160708134051330 82.201577888395491 0.000144937861900 0.060011634900441 -0.998197667132914
1.028938605231239 -29.794090259085408 82.099926837912705 -0.003005564922112 0.086613763609822 -0.996237432810493
1.232983688659360 -30.160663273795414 82.089555488868399 -0.005469593033774 0.109782216658136 -0.993940616162591
1.487962463106419 -30.147003581237811 82.083367580752480 -0.008538268250651 0.128256053899212 -0.991704332255074
1.550670563463396 -29.805606439811427 82.097498875543181 -0.009275715050794 0.142698691257522 -0.989722710977012
1.550911398921738 -29.382767582792596 82.168082080297367 -0.009251849969008 0.155986507786905 -0.987715856236295
1.611086089509798 -29.614740322452764 82.168785539026644 -0.009939347101567 0.176919275631246 -0.984175177135305
1.686530018028577 -29.638834044560010 82.172830134504395 -0.010804153455407 0.195221196378566 -0.980699727109493
1.942761039008988 -29.218040630631684 82.240828178775942 -0.013812713033761 0.208101922114778 -0.978009610878534
2.336077574121985 -29.166690515359626 82.267783260683061 -0.018411220534304 0.225108827890582 -0.974159659688372
2.740683210996686 -28.882829395980298 82.324054678783000 -0.023103799209960 0.239229800683649 -0.970688063657387
3.277559839064200 -28.683512721038401 82.458062408999893 -0.029268493833558 0.253866370278326 -0.966796370137178
4.038622983809914 28.789810016056776 82.341408096242816 -0.038218620014196 -0.255292268169151 -0.966108272864517
3.197730104922758 29.266193906308324 82.278354303200842 -0.028472724224376 -0.243577753108381 -0.969463347510320
2.863169986561152 29.567171173811428 82.224216921498467 -0.024635190942624 -0.229687861481617 -0.972952513566424
2.537559588987342 29.340568532990339 82.265481146213375 -0.020871177528073 -0.209409608235179 -0.977605242379244
2.699185484088147 29.643180161349211 82.154566914286676 -0.022889789761167 -0.195273065537047 -0.980481762910689
2.393485086459831 29.722683846028346 82.076689295021509 -0.019324404728033 -0.178340331367953 -0.983779087798412
2.327767794775446 29.726109918002599 82.162960721210823 -0.018576790327633 -0.159998317333365 -0.986942471125655
1.477967519586869 29.776540828109539 82.130515038841409 -0.008417512620356 -0.123780244389387 -0.992273952384214
1.075997890757511 29.831683487862158 82.065599017143541 -0.003571403014147 -0.105875845000147 -0.994372943379905
0.765045752695892 30.059975757664922 82.076748731462672 0.000196629623882 -0.089840137819014 -0.995956179243571
1.019391951831592 29.550538550822360 82.140016269189630 -0.002898161760151 -0.026856377641747 -0.999635101243637
1.024863716128536 29.673137074100257 82.046054363222680 -0.002969088557325 -0.009346582255945 -0.999951911800398
1.153885803258268 29.897673970543554 82.107168473445185 -0.004538251166219 0.006955011928589 -0.999965515448121
1.281776863212080 29.815221733050070 82.078564750970642 -0.006095808832202 0.026988530836073 -0.999617156874566
0.976881943352136 29.853449392225247 82.144657644342402 -0.002379082370815 0.045485839812413 -0.998962150606134
0.903560129433080 29.777448735552699 82.113930835089221 -0.001486330409929 0.065363972104111 -0.997860382003758
0.957493427552046 29.820400214235111 82.180792211364590 -0.002137061083449 0.083646778049774 -0.996493175838057
0.723547508278119 29.936033239747896 82.106972466696490 0.000699169898484 0.101117372594840 -0.994874257442100
0.851421171054200 30.335684974129926 82.161644795309314 -0.000848400085288 0.114956656098054 -0.993370146237569
1.041352043786591 30.727955934067836 82.138391040781272 -0.003140191280775 0.128918194687096 -0.991650260060138
1.038081678644947 30.157589298658650 82.075776566373406 -0.003091750073973 0.154221267621781 -0.988031498331208
0.667832938711616 30.178341064067176 82.064226320894718 0.001361385923519 0.172283146512217 -0.985046528878823
2.675011599555190 -30.202094641946140 82.128694574292467 -0.003973390902665 -0.171874239631209 -0.985110886101625
2.786036941718789 -29.834162037744505 82.084614157118125 -0.005320425137962 -0.158000576954836 -0.987424686119549
2.482354429618749 -29.885275211120714 82.145909385228066 -0.001670939477019 -0.138890594199871 -0.990306321702568
2.419856771230982 -29.991736572419654 82.121106538953484 -0.000920164082106 -0.119115142396087 -0.992880021024707
2.773996054052701 -29.525976390595400 82.063152342311568 -0.005213207973497 -0.106085951889066 -0.994343297495596
2.837056960598289 -30.186556976572358 82.149225209659207 -0.005986008501375 -0.079264567691150 -0.996835641422876
2.729938935277944 -30.212728729157089 82.080359133906043 -0.004696448197470 -0.060118220489395 -0.998180215662241
2.490500932484792 -29.986196797690042 82.090638467832122 -0.001785942953448 -0.043903531730680 -0.999034178749326
2.012978562313408 -29.729757721854217 82.046005269414863 0.004031339886491 -0.009006609118169 -0.999951313460266
2.470690919904781 -30.080002066239135 82.124330807823668 -0.001544857246012 0.033299891277098 -0.999444210877737
3.111284639369145 -29.577367074006382 82.138744120772913 -0.009333997803346 0.046164624516677 -0.998890236176248
3.682087627700478 -28.962085176573133 82.202385146642570 -0.016251823044329 0.057599698561908 -0.998207469904585
4.114079660430507 -29.599014090490773 82.097941872358717 -0.021481976221703 0.084246621653814 -0.996213346345816
4.303176711949055 -29.780174184832092 82.048202794708828 -0.023741993359373 0.105251716767625 -0.994162156727358
4.132962580830215 -30.145942650916275 82.067045263413632 -0.021616679724903 0.128243236086943 -0.991507131369018
4.311596167137094 -29.869015494085218 82.068348116876152 -0.023723281098699 0.143463116263836 -0.989371285314963
4.557660866714854 -29.375157260652564 82.082293724888288 -0.026631912266509 0.156007545538946 -0.987396772824351
4.765622804012201 -29.463716993245523 82.103325128995820 -0.029028800239868 0.175236329776406 -0.984098347464891
5.055963056365070 -29.126087456615991 82.233503672835809 -0.032369173605025 0.189101771770092 -0.981423841423032
5.891540424787451 -28.773178998184200 82.265957325297563 -0.042190396299054 0.202811618482390 -0.978308447202968
6.858810967886026 -28.548921970244383 82.175864718609802 -0.053540388567367 0.218103545241840 -0.974455884247715
7.746376071103502 -28.264695475525773 82.258300709622773 -0.063747800249009 0.232105551333637 -0.970599418402628
9.335122821400141 -27.710143824390673 82.263091093586837 -0.082145139483024 0.242966676352845 -0.966550241964362
10.313049101077356 27.532427756096077 82.280744299322663 -0.093569321369935 -0.240708908724857 -0.966076603256107
8.659285630168405 28.456039870851370 82.147221199443791 -0.074519594456264 -0.234363302310931 -0.969288745716151
7.415452172384739 28.901727998245299 82.125251851619481 -0.060098378627619 -0.222129138502729 -0.973163311430495
6.362617821596834 28.968691900068169 82.142127473524852 -0.047826583620098 -0.205283135785650 -0.977533350869033
5.930656370195425 29.414491507871944 82.021469879173281 -0.042869682923335 -0.192819905675534 -0.980297237709732
5.098148999924042 29.718898220812974 82.046987461807888 -0.033014491189309 -0.178294956500215 -0.983423078770321
4.337585177140419 29.564949360296389 82.057724514098808 -0.023984544414055 -0.158290621439870 -0.987101221148789
3.873420037257292 29.739411663557970 82.035746681426417 -0.018454216880894 -0.142003398040270 -0.989694132964488
3.410063909861317 29.237024703575116 82.131632225647863 -0.012892200578664 -0.117347052394815 -0.993007281170933
2.780163104865093 29.576426981380418 82.091745229538532 -0.005287932931844 -0.102782951428334 -0.994689751963389
2.655308967762543 30.064447910878346 82.135999626977608 -0.003777846098733 -0.089829003405824 -0.995950037916547
2.777749250723748 29.723101406677063 82.044418824452563 -0.005277870007585 -0.066938482386928 -0.997743145135018
2.911485342011248 30.067136499867061 82.056186564400420 -0.006909277619706 -0.052158774490289 -0.998614902816118
3.047994450998890 29.614016204551636 82.135612441338196 -0.008570578690506 -0.027628893812238 -0.999581507135672
3.103286454133613 29.794728188131341 82.101679708055045 -0.009250230838310 -0.010820584437113 -0.999898668956949
3.103100795654171 29.782452167496920 82.103620393099845 -0.009247969743687 0.008358273444198 -0.999922304142003
3.098505034580290 29.517810113963016 82.068051425491120 -0.009191998959692 0.030610642869772 -0.999489117348570
2.989640004244355 29.493061466539551 82.065072227190313 -0.007860411393992 0.049904935298290 -0.998723040369847
2.927877659254619 29.472368246784178 82.031245163615282 -0.007103583354671 0.069121753048958 -0.997582940090177
2.277816676803172 30.400156731250139 82.108688328162415 0.000797741357493 0.114260051648516 -0.993450554484724
1.836180649207137 30.591147782798863 82.179851772716333 0.006123408744033 0.130475355497661 -0.991432642933000
1.820697751102696 30.150755532297886 82.073444756333217 0.006296524002616 0.154303532775998 -0.988003427908189
1.639462992012484 30.177235851633192 82.061089181407198 0.008453811162976 0.172296412775979 -0.985008872661231
3.710632715712387 -30.320118204756227 82.149634003909597 0.002346375006449 -0.170458579767827 -0.985362048745467
4.096567201398400 -29.713893510525999 82.005472127208080 -0.002291046122528 -0.159562495359023 -0.987185170665801
4.181963478579435 -29.576137387130863 82.040992909914038 -0.003326257432494 -0.142720625079854 -0.989757424416866
4.675536002204370 -29.292596192115393 82.035438694315616 -0.009321289254869 -0.108913774480608 -0.994007496599002
4.543327747671257 -30.122766288213352 82.143138671572970 -0.007730587885830 -0.080038632590543 -0.996761784632605
4.230786876629002 -30.098993621926375 82.013582617406385 -0.003949578637325 -0.061546262359421 -0.998096417395721
4.026403650640828 -30.125542240427855 82.156740429721793 -0.001461189962797 -0.042176915475765 -0.999109089501664
3.707655123090724 -30.332877299387921 82.032180211455312 0.002420412881283 -0.020699240714346 -0.999782817933642
3.937963540619010 -29.854059418960265 82.107692999748338 -0.000386232378748 -0.007486184155885 -0.999971903540961
4.206708388143484 -29.920518174820383 82.103185594875313 -0.003659217977633 0.012352553584465 -0.999917008828100
5.039615956494004 -29.482970033258383 82.134329724287440 -0.013792940933358 0.026034076101477 -0.999565896608098
5.575049370839022 -29.057710565675926 82.087689788551486 -0.020309107592053 0.039874170204161 -0.998998293641858
6.197845649103273 -28.823701923818945 82.129088069698710 -0.027847802273706 0.055960042821958 -0.998044574914312
6.385299229341301 -29.414861768595962 82.034736434512283 -0.030103815778279 0.082071788325391 -0.996171662835608
6.567207382744174 -29.526699071675008 81.994546012291295 -0.032265761886070 0.102254748049897 -0.994234824933810
6.392649933870732 -29.777344903345774 82.035233007534501 -0.030061660426439 0.123879759440766 -0.991841772549081
6.889320547999471 -29.385159267574856 82.106451570755937 -0.035962273031941 0.137630009253464 -0.989830639792115
7.410609418832267 -28.995953010402282 82.157135680192198 -0.042124767626304 0.151336735309560 -0.987584273112059
7.942890687200032 -29.056374413747406 82.050373181577882 -0.048418384157371 0.170476483312311 -0.984171442744127
8.600748188090030 -28.580299008616834 82.125329139029702 -0.056107304745907 0.182849874609978 -0.981538533991032
9.575206208133901 -28.226662016979606 82.135940223205097 -0.067511685222507 0.196592973883287 -0.978158154379006
10.753327534252259 -27.447174148212781 82.253816758498743 -0.081193851941803 0.205038825426453 -0.975380253272842
14.540175228076517 25.527470900660628 82.268520994592109 -0.125119722650624 -0.217628202149201 -0.967978832740229
12.473658657352619 26.924905537068636 82.113659920708173 -0.101305529825619 -0.216757189748949 -0.970954947625732
10.696811889221818 27.634567629900143 82.095802463079494 -0.080638426424674 -0.207556319082058 -0.974893747334990
9.317367749374171 28.219047337823504 82.154859213961430 -0.064441083117473 -0.196502290554049 -0.978383460926062
8.446535470567406 28.939545295621251 82.005095550708802 -0.054303139224583 -0.187277781313494 -0.980804874425413
7.487284649492560 29.321793128088132 82.086097227364590 -0.042922625548275 -0.173535216685702 -0.983891852179847
6.587929346455905 28.920477355697670 82.078179862693702 -0.032282163795063 -0.150646772068107 -0.988060429308941
6.190162963486721 29.100299570010637 82.107395804188158 -0.027553540396751 -0.134293033779836 -0.990558520981881
5.919144248157050 28.665809279333516 82.179390260077241 -0.024336770017616 -0.110440808600333 -0.993584696651883
5.427102201998328 29.333209227748640 82.103588351630194 -0.018427871101397 -0.099835929089406 -0.994833252776326
5.305526027276582 30.000753638335475 82.130391408454670 -0.016967091394163 -0.089056670769195 -0.995882034781796
5.420494909335452 29.609688547600950 82.039123251839683 -0.018414750204736 -0.065559267269864 -0.997678745614006
5.360770619860784 30.194313819680850 82.038516182887079 -0.017701358401616 -0.053706508697589 -0.998399856187016
5.178580820331122 29.557800846753445 82.070282399487482 -0.015495442946427 -0.026964448261520 -0.999516287900225
4.918039078310896 29.528397941415768 82.038372246570859 -0.012331372069603 0.011460719787742 -0.999858284540778
4.662816098090017 29.394769757637970 82.064174154565492 -0.009214055511996 0.032109124861308 -0.999441896901297
4.597277319960622 29.444241644166407 82.002171688607945 -0.008415872853010 0.050535968284418 -0.998686782226379
4.419451887414517 29.406051479515867 82.027097600718363 -0.006241054206671 0.069928232037993 -0.997532501528862
4.288231425159214 29.751791165030852 82.053873002940435 -0.004638511538060 0.084601807346316 -0.996404043751554
3.970055541025197 29.780957563262945 82.091058327584534 -0.000773119362961 0.102996394483667 -0.994681428905665
3.521884741387815 30.373333323735395 82.104725633339157 0.004650517345580 0.114584593784206 -0.993402608993819
2.803370480199721 29.899808078371876 82.028112948024813 0.013276508002892 0.157324448316217 -0.987457721777114
4.115574531037080 -30.181724652100431 82.114657269212202 0.016230964003394 -0.172118572003113 -0.984942512525035
4.624170617084355 -29.618893742833492 82.046724027099017 0.010159742366362 -0.160590114966516 -0.986968892422699
4.956563920887702 -29.435562309858696 81.958826258344274 0.006183581783319 -0.144521160088631 -0.989482388728049
5.292164097594034 -29.499337542032137 81.999905172619009 0.002136550543327 -0.125159255389811 -0.992134363855040
5.484991744233429 -29.488104413466132 81.999885529796714 -0.000196941242069 -0.106622354632398 -0.994299569901743
5.540623909177715 -30.014065398828794 82.076577283290732 -0.000872785782364 -0.081416935047616 -0.996679748430974
5.350704077264213 -29.874619156121923 81.999995980421374 0.001436606093900 -0.064276875305806 -0.997931069495210
5.460872098862710 -29.843207810904829 82.084360698165227 0.000095873203569 -0.045643692212428 -0.998957778972438
5.468738447157577 -30.211383819136028 82.149844717343285 0.000000140596841 -0.022147574307703 -0.999754712393127
6.152517497779749 -29.594576155441626 82.162504721426743 -0.008321376387730 -0.010638601004726 -0.999908783271592
6.546428481966238 -29.398959241650207 82.101449114450460 -0.013124814053906 0.006000599703449 -0.999895860607118
7.422966794630859 -28.891639503564775 82.072146156929136 -0.023799985320069 0.018851412782423 -0.999538986200574
7.569595296269211 -28.729051747115740 82.030171363351698 -0.025585742251482 0.035900642395759 -0.999027784232757
7.750939860663028 -28.880482744099552 82.005906843729719 -0.027774003415639 0.056732782573927 -0.998003004061454
7.863506784565769 -29.353478492301875 81.982049074566774 -0.029101431335105 0.081385690755886 -0.996257735746346
8.112591225074350 -29.393870940822321 81.948314173900613 -0.032081558367605 0.100717400082785 -0.994397696564745
8.207509641804716 -29.329476396424052 82.021438996818631 -0.033136837771382 0.118550833592548 -0.992394906192603
8.913322992675479 -28.791021447013705 81.987110313910208 -0.041616201433798 0.130751135037015 -0.990541383519514
9.997190977501324 -28.157669242136667 82.170519458677063 -0.054474208799487 0.141361954073580 -0.988458071197848
10.663953755991706 -28.271480232156776 82.056456289229033 -0.062359905845537 0.161177892595808 -0.984953262384216
11.641381130370039 -27.605831661179479 82.081103094199378 -0.073879486898504 0.171449211982998 -0.982418947865941
12.809509582858963 -27.244306899174649 82.072485229321245 -0.087546327762182 0.185158698857181 -0.978801254971035
18.086807515901945 23.241976746695048 82.222621357320989 -0.148885634405923 -0.191277011760414 -0.970178423095233
15.758953492909235 25.014324295175619 82.196587227762308 -0.121849656517575 -0.194441377089113 -0.973316604236380
13.587615806322622 26.180999704986053 82.210181333649132 -0.096480877080483 -0.190430774866144 -0.976948084773014
12.011080727586446 26.902202596820516 82.142709815850253 -0.078080089838721 -0.181208409080087 -0.980340253202653
10.668317709013786 27.796975232977719 82.175971649869012 -0.062188347195476 -0.173612309926776 -0.982848602438333
9.692137085972625 28.227854560514089 82.119332965114040 -0.050694839586756 -0.160654237912785 -0.985707993819638
8.847006746374852 28.210399232773511 82.096952088649346 -0.040696985259304 -0.142201532740315 -0.989000747965900
8.445953448099448 28.640804650887340 82.085640700168142 -0.035943540360974 -0.128842866725671 -0.991013409394762
8.011413730870714 28.302430357323225 82.204290376421483 -0.030741914289333 -0.106047398831136 -0.993885749926508
7.580056142648393 28.957059100728436 82.067116778636844 -0.025600899025687 -0.095347509406189 -0.995114790573989
7.132736736331728 29.375131454052138 82.058578345884754 -0.020206274879560 -0.081589331561046 -0.996461182099390
6.980244805721789 29.354235221879982 82.055560902282124 -0.018381306162250 -0.062452696362398 -0.997878644074937
6.660569112036187 30.008689349684900 81.992441259843702 -0.014514908196763 -0.051485073068870 -0.998568277430809
6.116703018189237 29.438291530398949 82.020701976169732 -0.007897050800600 -0.025527623770859 -0.999642924755268
6.047867761952963 29.469645369416753 81.986018980528087 -0.007063273105903 -0.006871513226208 -0.999951445060716
5.903808222836718 29.385754144461995 82.041698814198313 -0.005302354940118 0.013199218227154 -0.999898827717225
5.586638729304362 29.563309949466543 82.012790917968857 -0.001436791338262 0.030078489342272 -0.999546507226921
5.458833039907384 29.740046353485937 82.079581930336047 0.000120688330201 0.046899155975588 -0.998899621885555
5.462667417987511 29.468631709832181 82.033065657620924 0.000073970351605 0.069167193118908 -0.997605079139255
4.896633951632888 29.737280722096791 82.088221213289785 0.006917132733250 0.122191624687501 -0.992482423084147
4.390142491768105 29.746029392580276 82.119293477413038 0.013003104378926 0.140569265912233 -0.989985454821134
3.984295851288307 30.054754253030936 82.151033875224954 0.017792810124796 0.173516669626862 -0.984670189083363
4.729612092466558 -29.794001159997194 82.085813997124006 0.027587653212675 -0.176642081265765 -0.983888457354956
4.922337093342626 -29.537104294981500 82.071429133450522 0.025350557839372 -0.161457455283309 -0.986554022520141
5.048045524281703 -29.411843121199858 81.993616846881949 0.023925738638175 -0.144702700914467 -0.989185870996284
5.061906483283703 -29.537594094433413 81.981262106430890 0.023827507764263 -0.124696381192578 -0.991908797415982
5.071567321312298 -29.611315570696011 81.989589465921952 0.023762370300566 -0.105128342782878 -0.994174723728895
5.442403635241872 -29.893085255002074 81.991035900384176 0.019307891174604 -0.082946466703098 -0.996366944955453
5.824703562996381 -29.687884582650511 82.039101197890332 0.014672825453042 -0.066500856346218 -0.997678477415667
6.462778932279093 -29.518719374442963 82.066923093570026 0.006918231321905 -0.049592681338165 -0.998745565213217
7.111709769087708 -29.640577961924475 82.075150401518741 -0.000979902193249 -0.029115479698886 -0.999575574248188
8.317181517716827 -28.770545519628680 82.099817688139538 -0.015661082909717 -0.001652715629903 -0.999875991817556
8.679830598296013 -28.457458710080846 82.025876008245177 -0.020092389985326 0.013573536990626 -0.999705984256492
8.610784051635173 -28.544563706365746 82.048286207208108 -0.019236804915786 0.033653802294066 -0.999248401013374
8.541308395899561 -28.772680043765909 81.969711142576685 -0.018390675872605 0.055461332892046 -0.998291452229652
8.782981715688313 -29.110224000147312 82.017813648022056 -0.021287297553631 0.078429626930943 -0.996692352023600
9.286105729956510 -28.891162706247592 82.009292648611051 -0.027361433442016 0.094617312295202 -0.995137636799066
10.123679436092953 -28.727195081964886 82.018166123318508 -0.037443146096294 0.111344534228900 -0.993076233482486
10.919092027962229 -28.201678484735652 82.042944602152687 -0.046971632571732 0.123630886610314 -0.991215955082188
12.004460580942329 -27.425490793623794 82.064279737591932 -0.059954316828720 0.132841962551221 -0.989322239151199
12.901294967502754 -27.229198197727882 81.992317597570661 -0.070612834927256 0.148988911316346 -0.986314418351626
14.192156279276601 -26.369801362179885 82.085176155618953 -0.085831311030524 0.156880634809779 -0.983880812125362
15.453984509133395 -25.754292521854111 82.114395750720107 -0.100593986732753 0.167628598135126 -0.980704595135795
20.932940667208200 21.095759736636886 82.163694308747466 -0.164497582146589 -0.166424207036290 -0.972236354381108
18.868044052182327 22.951956356738165 82.189811514466584 -0.140462727568320 -0.170383367233157 -0.975315195377555
16.888040944471264 24.222088118462089 82.255922402597903 -0.117300856176024 -0.167390671408569 -0.978887568756372
15.127356379036105 25.308011848902677 82.222247134831392 -0.096693017783782 -0.162298600846801 -0.981992680458992
13.454207051420511 26.377416222847657 82.205937455752860 -0.076930854610379 -0.156859099566986 -0.984620163561539
12.267318511362307 27.059336382976326 82.121490097686149 -0.062941080795316 -0.146839600708935 -0.987155789129536
11.412049091388564 27.373727827149519 82.104966533285150 -0.052812526719573 -0.132217936433388 -0.989812736989574
10.459047264000912 27.942764538722727 82.095323495910861 -0.041413522580656 -0.120502773211583 -0.991848779701714
9.768314717241596 27.930647051195134 82.176524055900558 -0.033116330517140 -0.101626098623051 -0.994271313441023
9.196836930743443 28.384363525734376 82.058304196856099 -0.026278205687944 -0.088467583129892 -0.995732364966098
8.607394479185963 28.850522949100032 82.041397179794416 -0.019153536021217 -0.075273702139993 -0.996978942517857
8.029204706994106 29.199749792326124 82.012819897084597 -0.012145000693612 -0.060618227970380 -0.998087135172017
7.582408090278221 29.876156563399153 82.005975788332350 -0.006712435638512 -0.049870984817917 -0.998733111537357
6.969619995659915 29.430486064637201 82.023437103910169 0.000751127414261 -0.025432493170472 -0.999676259645462
6.891668802933093 29.214037425150806 81.989303473016179 0.001702417332198 -0.003753962985130 -0.999991504732482
6.702189737834515 29.067827988900522 82.037379509969000 0.004010484608964 0.017074003791584 -0.999846185374394
6.459124871181972 29.319450107571761 82.063212916509684 0.006967788683693 0.033026426652396 -0.999430190190107
6.403158780788051 29.681418474693750 82.074405653994503 0.007643802107971 0.047612650910384 -0.998836627163131
6.405474970107809 29.035097486590310 82.008036004471734 0.007582394643065 0.112033836343265 -0.993675463522013
6.092474100129999 29.233088477524703 82.021196418153309 0.011350210372023 0.128287528986523 -0.991672064056986
5.763201169913335 29.185882422675480 81.974427527367283 0.015297971167652 0.147428731780969 -0.988954367563847
5.248270074382884 29.299745178076769 82.039962151155848 0.021432623219343 0.164310672219296 -0.986175768135063
4.972926279995829 29.917930954325179 82.114426929334314 0.024671265971523 0.175156646837766 -0.984231414710947
5.854175393332548 -29.484646798080579 82.016214025389459 0.032836804586689 -0.180350032385466 -0.983054225403206
5.915172114220811 -29.294282993527645 82.075554659098799 0.032175109739089 -0.164257861939608 -0.985892548457643
5.786947445420976 -29.349984628659076 82.021160834966324 0.033837282152851 -0.145343765778673 -0.988802421156918
5.592255552048222 -29.294072966186974 81.979506253460400 0.036289377922280 -0.127550199901016 -0.991168011769561
5.411306504066880 -29.663864385549779 82.017154416421079 0.038561050477803 -0.104415189803105 -0.993785949550722
5.842084349871060 -29.568726178789998 82.053114477794381 0.033389948430153 -0.086761604431622 -0.995669390581172
6.424391399971343 -29.401812953251039 82.059883241078794 0.026362359946879 -0.069928752542824 -0.997203587812356
7.260281542666231 -29.101130742839345 82.036254997918363 0.016228166695068 -0.054674689754906 -0.998372337810860
8.164167303172972 -28.992177424226629 82.052614806511613 0.005231795114201 -0.037012210154346 -0.999301118091726
8.918467112691905 -28.575903625684187 81.967504484398972 -0.003960447770361 -0.023086307773092 -0.999725630984254
9.295255984957036 -28.161157081871007 82.043617825498302 -0.008549737781317 -0.009080961829726 -0.999922216032886
9.111558273292349 -28.289107701069291 81.982914521314370 -0.006315505223714 0.011530158568963 -0.999913581184466
9.155568147261596 -28.496844530006111 82.003124371684819 -0.006847265658277 0.033096825472347 -0.999428694353258
9.210546485217986 -28.654628039484606 81.987771332770365 -0.007511831509170 0.054023602965347 -0.998511403395084
9.714713770879701 -28.604502584455375 82.067081289734517 -0.013622114119330 0.072284027031904 -0.997291059542284
10.248628393502026 -27.944888002042077 82.108047020859615 -0.020081038630045 0.083134789492077 -0.996335966762039
11.629209421512037 -27.575474850745913 82.080919418894155 -0.036780072961493 0.097470312016793 -0.994558577715911
12.595658898193193 -27.172355685188975 82.098857894383144 -0.048384825271348 0.111275609783448 -0.992611025201102
13.561141687373897 -26.650899183012026 82.104349963575132 -0.059927514626299 0.123593306587188 -0.990521775408073
14.711350862167203 -26.387954448284201 82.036157902155708 -0.073643925149479 0.138969597306900 -0.987554567258405
16.114854188229941 -25.185386923667206 82.050515025150048 -0.090343593852612 0.142992635719726 -0.985591772073874
17.451413523611727 -24.176100021834998 82.200902229452240 -0.105940240684269 0.148993541703564 -0.983146779445667
24.998758367059907 16.222510840524514 82.078647821839127 -0.194395169653512 -0.127429326229702 -0.972611065550884
23.415522015408008 18.924344523205093 82.037756411212129 -0.176009642743237 -0.141231380159186 -0.974204446160933
21.522835384051156 20.901775279242329 82.112070762205519 -0.153862732167692 -0.146471799110345 -0.977175660623652
19.862323349210037 22.320886248330481 82.132849576885349 -0.134485897472372 -0.145180048315199 -0.980222575210471
18.091966719212227 23.918182497142780 82.107004731037009 -0.113683024766155 -0.146013554723432 -0.982728961472615
16.212520457443617 24.994095996981507 82.129895137932436 -0.091450851727807 -0.140593518148860 -0.985834775392299
14.532118144134387 25.759464536600831 82.135302154068754 -0.071486314483380 -0.131403810480328 -0.988748069749233
13.664564683321771 26.409045490493334 82.188401984846834 -0.061130978701890 -0.120588251844404 -0.990818589329076
12.394083663472422 27.120178964441163 82.114267408015422 -0.045947692703088 -0.110644770456307 -0.992797332946626
11.571766343341285 27.715236771763813 82.069206644017143 -0.036084046326685 -0.099163780101343 -0.994416656294888
10.869679850254677 27.860767227271705 82.039930041184988 -0.027637278084453 -0.082173858254666 -0.996234730311900
10.220045627217782 28.140178788282107 82.090960449844545 -0.019762980036673 -0.066641497001848 -0.997581242554922
9.399884984714777 28.573770385188229 82.110637823798541 -0.009803417058431 -0.052961454276885 -0.998548435167196
8.711812491115023 29.139916833898894 82.101244316679271 -0.001436807729281 -0.040874611584506 -0.999163250781055
8.147080804847572 29.052974182240469 82.030979144009649 0.005443865876325 -0.020831495213168 -0.999768179695425
7.833724416668633 28.837726103039934 82.046451267487654 0.009262956530547 0.000835148043389 -0.999956749146711
7.702515945185339 28.704744739122102 82.086211310421277 0.010854147543718 0.021483440030178 -0.999710282674720
7.404957651871541 29.141097087867827 82.050508157460698 0.014478045891225 0.035198549654514 -0.999275461666797
7.463722908593982 29.500828359327912 82.060221369528406 0.013752307306876 0.049810413054303 -0.998664005957508
7.523313628777677 29.476442873214076 82.026622854885829 0.013017589337496 0.069072201468879 -0.997526728139193
7.459262639596066 29.321308010317509 82.009226861606038 0.013776409962404 0.089829289492198 -0.995861892672812
7.209795459740377 28.968246108705625 81.991179576532687 0.016769108690896 0.112843861520591 -0.993471217454655
7.075500801780032 28.913300611258265 81.970508693872702 0.018356295468746 0.132153903865817 -0.991059227347028
6.804568720692955 28.729276356138080 81.956059382955985 0.021569394566691 0.152826686484170 -0.988017593525690
6.293231744117040 29.031549377764431 81.981937977641792 0.027653783578350 0.167534566921933 -0.985478278370499
5.774156722397533 29.520481979479705 82.081099147020581 0.033771628669331 0.179791208773749 -0.983124914924190
6.827278119878446 -29.592507626484075 82.075160813239222 0.039872701881921 -0.178928522859216 -0.983053788636235
6.712748712435596 -29.363803257267122 82.058577997732485 0.041363378829602 -0.163422783696491 -0.985688624597387
6.591206655610613 -29.360310885449927 82.053920788717818 0.042947155094439 -0.145114312908687 -0.988482361025392
6.586683558192989 -28.990483075887752 82.038245303586891 0.043095091655282 -0.131030628082968 -0.990441208542640
6.657273869287644 -29.283002987101540 82.084171535878752 0.042334859415757 -0.108871712194779 -0.993153920579295
7.105685652521077 -29.111825990557534 82.122041281719603 0.036963096419228 -0.092171622554737 -0.995056843350534
7.687087178114988 -28.695453954175900 82.059026617510426 0.029983762257256 -0.078455325389485 -0.996466625592112
8.141375091366292 -28.453578090803941 82.044450219661243 0.024502917531725 -0.062509691222134 -0.997743526932521
8.763128649224937 -28.353954369052452 82.015783906176424 0.016966524793266 -0.044784991242815 -0.998852562491492
9.081042344838625 -28.319686774416038 82.014803272035749 0.013104298051936 -0.026192117313638 -0.999571033175329
9.513809916213958 -28.026193788491735 81.982759601048613 0.007835590727967 -0.010733701811297 -0.999911691682506
9.470473354582905 -28.233240336119611 82.042312359748564 0.008358033460294 0.010840832859471 -0.999906305420458
10.016543474877812 -28.381991374095286 82.008652753181522 0.001702699879612 0.031697030762892 -0.999496072555534
11.212941284878751 -27.960409477362720 82.051948153393440 -0.012850435180333 0.064503945973036 -0.997834709393086
12.056779011459486 -26.910076073289158 82.122352867448811 -0.023078676520455 0.070629339080621 -0.997235614662402
13.332052206903256 -26.310091112799974 82.129547018780286 -0.038508575323187 0.082197661122832 -0.995871796032258
14.293262518036318 -25.905299156330035 82.103619986665436 -0.050090961593853 0.096095764091658 -0.994110909149600
15.366901255577652 -25.506490475786755 82.103030618702491 -0.062953379915158 0.109946121490718 -0.991941894632143
16.706421937678748 -25.172684757989245 82.104009977296784 -0.078908227173578 0.124430005517278 -0.989085772524958
17.821342105511448 -24.014897059726167 82.137757966791725 -0.092139585352944 0.129025688901625 -0.987351339906139
19.373961569311945 -22.712693810464309 82.126267983619755 -0.110563890719827 0.131869303232150 -0.985081779820316
29.504863699949613 2.400101357773327 82.187669197827702 -0.229113246891055 -0.019169347042905 -0.973211002934609
28.832123582504341 6.875086031634166 82.172689135130113 -0.221304343909282 -0.053695177528548 -0.973725431154522
27.640601690700212 11.089398440568239 82.184236471702235 -0.207332523309619 -0.085179039968792 -0.974555157971092
25.996011225101462 14.344689487615703 82.167768392137532 -0.188232456626280 -0.105477593435718 -0.976444068831106
24.714502627989916 17.216012331034960 82.007414278709916 -0.173498422452508 -0.121377217626445 -0.977325876280657
23.086308398433665 19.125843394723876 82.052431399306570 -0.154425634759748 -0.125786377579408 -0.979964545554838
21.646485371279017 20.801016062406006 82.068666046118096 -0.137525258782514 -0.127405937311861 -0.982270090318589
20.149158622064135 22.711072241745651 82.035769814177414 -0.119862164112560 -0.131849852965643 -0.983996279407190
18.768067486716006 23.674590579328903 82.026897851726460 -0.103594580617298 -0.125025148313833 -0.986730396387904
17.229471540646102 24.643709134795365 82.125455481192205 -0.085209270457127 -0.118057573000787 -0.989344120963645
16.061237756549769 25.247706485653879 82.144803041989746 -0.071290447380777 -0.106742200720197 -0.991727671640586
14.785205154868244 26.104864430251077 82.118200882338371 -0.056006716937305 -0.098440585967950 -0.993565648909115
13.883656481848863 27.010917956812008 82.045486823925359 -0.045197119944815 -0.090695622126980 -0.994852513931434
12.938504100238138 27.104234845475411 82.143418689777079 -0.033761122439487 -0.072933926046298 -0.996765182499419
12.117735994531095 27.256982575532952 82.137871487284642 -0.023836261933784 -0.055908768690399 -0.998151312277125
11.360828842759350 27.820181315390016 82.142264287588915 -0.014648897516227 -0.043797048709595 -0.998933044966422
10.601535941385029 28.261161414991960 82.071333971150963 -0.005423041546523 -0.030202306844379 -0.999529094764961
9.845175513251171 28.429490634367077 82.042226322416298 0.003791279545994 -0.013232670741829 -0.999905256824086
8.952767591321390 28.396483644017067 82.075023254592267 0.014656952973799 0.025237685494860 -0.999574025753164
8.461796208950670 29.018074865556756 82.037197063034597 0.020636387663492 0.036696810795801 -0.999113348715560
8.264050795958816 29.252520955534628 82.033421314460099 0.023027859365233 0.052832287263787 -0.998337852190095
8.185731445164960 29.465350979938059 82.069329380521367 0.023946026914996 0.069156629238813 -0.997318378667169
7.997773599926838 29.254403336839950 82.042870552672028 0.026191923311166 0.090575739147677 -0.995545086187017
7.812315103690498 29.144750789730999 81.989214238109497 0.028401004438501 0.110705188540761 -0.993447403830237
7.802300596515837 28.892376946133062 82.008531571055897 0.028439644840935 0.132310898319040 -0.990800188124392
7.786307829866432 28.519850650309188 81.969410061989052 0.028550080353374 0.155239119981819 -0.987464282158644
7.021072989917854 28.937837445773781 82.022061971332761 0.037524560264299 0.186635697836340 -0.981712291697579
7.474937032527894 -29.518616293909375 82.080529851505389 0.050793692010438 -0.179684424968170 -0.982412086792404
7.497682250913910 -29.349858619246270 82.080841154418351 0.050666999748963 -0.163472468860326 -0.985245962722582
7.703597821216134 -29.417981512185293 82.102282986804184 0.048334563365642 -0.144315258069275 -0.988350583686098
8.546871333400420 -28.950921863547549 82.120815038518060 0.038349397492438 -0.112807739529107 -0.992876496657213
9.067118822475020 -28.479991843298304 82.074920750091252 0.032129300587968 -0.099827434347531 -0.994485893009709
9.518553747999178 -27.996441078710376 82.068900155072768 0.026698170755986 -0.086880341236375 -0.995860941088130
9.770501273985637 -27.967574031872264 82.014165672018194 0.023692675738956 -0.068419992315794 -0.997375236191392
10.067081292023198 -27.708379299786042 82.024627986139990 0.020130026910138 -0.014599277272565 -0.999690773749421
10.270152461292476 -28.033224948713411 82.034314097613731 0.017655058363285 0.008403107235995 -0.999808825077559
11.137529209503578 -27.882581901531168 82.021028319768718 0.007083739067598 0.025610382712141 -0.999646902130027
12.086159499912023 -27.577112958522626 82.160570278560002 -0.004468071262459 0.040841091554452 -0.999155664338563
13.044143600799901 -27.006135067832901 82.104170001892129 -0.016118127213911 0.052899003621949 -0.998469779908697
14.123152106708849 -25.762227230417654 82.122276337534174 -0.029218642686947 0.056732011549613 -0.997961797758345
15.317062150256998 -25.470163858484174 82.116926098404448 -0.043663537801929 0.072065451504480 -0.996443709481913
16.278106894423246 -25.065283298569263 82.097822016491847 -0.055244843019790 0.085987317321813 -0.994763383212066
17.248013075334953 -24.482343500528913 82.068425497352209 -0.066899734728796 0.097714379921705 -0.992963405896578
18.645167160683194 -23.878282211785596 82.043956956197590 -0.083622083311399 0.109073188600575 -0.990510164870187
19.885266955847349 -22.352255205186566 82.168423164725112 -0.098308859466081 0.109197125378435 -0.989146781807212
21.181101358517942 -21.035054420480176 82.123361345678589 -0.113743855734078 0.111988272875107 -0.987178282794550
29.994198878838954 2.006703203826595 82.009433193518504 -0.217487193607509 -0.014583520216906 -0.975954221034375
29.361659409796143 5.816144532356510 82.144983558153982 -0.209809839574220 -0.041293786804097 -0.976869824689666
28.229868934041761 9.636981445664190 82.131008569501958 -0.196631165107083 -0.068247367460572 -0.978099423240466
26.717529077057122 12.703697962724059 82.179770346322499 -0.178876315766930 -0.086284412197067 -0.980080743545886
25.262546914791919 15.648243308636527 82.115661669682638 -0.161871601706608 -0.102987848794509 -0.981422991151938
23.889928549910366 17.696378182968452 82.094973493319486 -0.145780076055939 -0.109026568247316 -0.983291094661870
22.592927528851494 19.431459816614385 82.074836862029784 -0.130526677816006 -0.111333691232918 -0.985173891033847
21.309649799661475 21.225770506277055 82.086584178695617 -0.115289094839061 -0.114280809066920 -0.986736196402159
20.322996512488388 22.017845683472189 82.099323613631967 -0.103653132303197 -0.105247508534781 -0.989029317113986
19.100486456588765 23.173126591933787 82.078866661737067 -0.089119116945416 -0.100559900904670 -0.990931626967730
17.709576805639838 24.150704071731081 82.128420935238211 -0.072431710864948 -0.093633829908488 -0.992968455268265
16.558645613715150 25.074689789161479 82.141275435442040 -0.058601472499275 -0.086038743058015 -0.994566841451048
15.823648436001346 26.233205131846496 82.034393434954040 -0.049810683606375 -0.081324537457184 -0.995442221028444
14.881735056067154 26.224040543133569 82.068993806906931 -0.038437052570995 -0.062344033821042 -0.997314300727998
14.131191441888751 26.503146905550242 82.044441679418640 -0.029359151051342 -0.046816318675310 -0.998471968838002
13.505580167506514 27.239955924684917 82.094996514483981 -0.021745529603341 -0.036767748870450 -0.999087215705050
12.853014020864773 27.435162425970603 82.085504925158318 -0.013813957141210 -0.020142643112539 -0.999701679760788
11.963400021755659 27.849988072595345 82.048073526321815 -0.002981718729502 -0.006169872914020 -0.999976520735184
11.202231202498670 27.824459254402036 82.101248694003232 0.006290571154565 0.013174896426720 -0.999893419729670
10.452513694136588 28.016723002142967 82.063611358625295 0.015421219167743 0.029862708535587 -0.999435042730792
8.603377736791655 29.148673673883149 82.071468747351602 0.037830871441510 0.072951746522366 -0.996617713993341
8.227264804749744 29.066790401013382 82.039977726879144 0.042336427734331 0.092784765356937 -0.994785712706186
8.167292486444593 29.083067059631759 81.999321217464541 0.043001059614426 0.111371630226035 -0.992848059298517
8.289086786962983 28.826209437693620 82.022314708883172 0.041406051105119 0.133013890647186 -0.990248879740229
8.532839093748493 28.452432553573544 81.991911096534906 0.038352123585548 0.155938575254923 -0.987021922433308
8.531900898977847 28.695700988735716 82.016340839672694 0.038252900024273 0.171324559011695 -0.984471742163878
8.331030164577513 28.478547569606398 81.984548538111255 0.040518117873729 0.191995005745648 -0.980559126158489
8.132224480711589 -29.367475370539182 82.123178063130496 0.061539685900423 -0.181233113773883 -0.981512824944789
9.120419254467059 -28.951443895591837 82.147071721447404 0.050015996460307 -0.149715183368291 -0.987463297529119
10.488752095209675 -28.432455739197891 82.134500102332950 0.033738044035162 -0.118989902873047 -0.992322098614630
11.386631218130315 -27.497852461205859 82.031502892542321 0.022990156314400 -0.092930439737825 -0.995407145886935
11.519041535833928 -27.875912971797327 82.045942590178527 0.021445886140514 -0.050570001560213 -0.998490234759383
11.752397434855407 -27.893817947634371 82.115414111844743 0.018605970124676 -0.031336644181156 -0.999335695653459
11.762080076154108 -27.571811718525090 82.085099118021517 0.018501643208451 -0.016251836335098 -0.999696737523097
