ply
format ascii 1.0
element vertex 78
property double x
property double y
property double z
property double nx
property double ny
property double nz
end_header
27.703255522479836 6.116922635512374 87.845522140562224 -0.394246647115275 -0.088104473971804 -0.914771656154975
28.130690763945587 1.845140199236008 87.962794074878488 -0.398946970552731 -0.027366783361842 -0.916565531675299
27.966605442181780 -2.458881050095574 88.013580450477733 -0.397237214152149 0.033761915703820 -0.917094721793037
27.169170356267728 6.965235573077159 87.919242576306900 -0.374991300789218 -0.097609159830944 -0.921875249830207
27.955243809405758 1.843153640829154 87.984542148322987 -0.383474911440623 -0.027535448964738 -0.923140721312800
27.974346752289627 -3.038238476251712 87.997856267610103 -0.383433959864628 0.040049160912779 -0.922699551930482
15.350613160336241 -24.031767421934425 87.812659131336844 -0.243411234729452 0.379312975723639 -0.892677230165059
26.478615237525297 8.786841011707290 88.010952588260253 -0.353367765870772 -0.117374153872269 -0.928091875864813
27.542600420417372 2.620165664966414 88.108247846502593 -0.365049629610573 -0.035914007654592 -0.930295088654868
27.557717800831881 -3.455487109820001 88.066097138088793 -0.365209247184372 0.044733788510400 -0.929850038412932
26.670021722834427 -8.881257350154330 87.990542640971711 -0.355161468256238 0.118294945201331 -0.927289942469931
14.875721873999375 -24.349708641431803 87.794413116912651 -0.224894485925463 0.370274701174744 -0.901287476818732
19.972133172345131 20.622615140755148 87.678415978522750 -0.267939791177937 -0.274790575468722 -0.923416703301977
20.559083860361824 -19.680344825501102 87.781418272863178 -0.274121472989593 0.264866717488163 -0.924501508929575
17.688763907036211 -21.994518832604371 87.909721836220342 -0.242664926197592 0.304157694986947 -0.921195869603064
15.440172526356442 -24.182594631251291 87.676999785578118 -0.218005656619294 0.341740638424057 -0.914159105260954
13.719940788214611 -25.282014148654007 87.693236227000483 -0.198825932941815 0.367197846323221 -0.908644039239462
12.279591197777837 -25.801814254736449 87.792686157409804 -0.182765330015218 0.386371787197368 -0.904054022834001
10.110995074421739 26.124987624324604 87.997458696094697 -0.145694263324205 -0.377104642181942 -0.914639421017511
11.589000667172931 25.491500207928638 88.038865423313922 -0.161965617928012 -0.356279400103780 -0.920234822026904
13.825123521184590 24.608143548442264 87.944664812250124 -0.186390975729892 -0.332591123183457 -0.924468251994640
14.186944394517447 -24.304410383736037 87.914831541198765 -0.190314446139870 0.329606188952730 -0.924737893564729
12.090973822200381 -25.853230775127287 87.742614763069582 -0.167317475391699 0.360286379825617 -0.917713782690823
10.568495557079531 -26.438784172573477 87.793219071668545 -0.150449491290713 0.380366221521396 -0.912516568669250
9.193492345265948 -26.975070037797181 87.834969922976640 -0.135230126409270 0.399440694103409 -0.906730359481539
4.247687773716632 27.772992750057796 88.023432109265926 -0.067708657151686 -0.421717953262022 -0.904195501892819
5.217623371537528 27.787916395890619 87.926134016116109 -0.078202227443764 -0.408591026950984 -0.909361195740160
6.190610437312131 27.173271287976434 88.064933045659856 -0.088871815446341 -0.388727702676002 -0.917056472411328
7.254847394428779 26.889500278980712 88.066399822513915 -0.100582598705111 -0.371824900754278 -0.922837680210772
8.817754098273758 26.506098591653902 88.061224018895558 -0.117625715020274 -0.353433961341068 -0.928034819463543
9.221791893706481 -26.197172409569255 88.061564174594110 -0.121960791877111 0.350399898867123 -0.928625584462661
7.831099790439039 -27.254746768198359 87.853529304191724 -0.106621081320749 0.375652276728475 -0.920607034519456
6.727684332654416 -27.476495203060786 87.882003092953227 -0.094464587448239 0.391885298376141 -0.915151547359713
5.835396919004809 -27.937869556101091 87.803246984721440 -0.084591446054450 0.410141892192585 -0.908090257366030
2.042619875577612 28.069692587365047 88.012854148685349 -0.029223531776649 -0.411760763607214 -0.910823286232902
2.598677531012876 27.680308490961579 88.131786725591482 -0.035218584255631 -0.394254021996057 -0.918326422065140
2.952721636623354 27.670708623710468 88.062151895954059 -0.039177123456336 -0.380489545941774 -0.923955008875816
3.519374159503536 27.546826303922565 88.067277526665961 -0.045408342936369 -0.365094248800787 -0.929862501601372
3.217523776233071 -27.256679983592882 88.194851129341700 -0.042221241434200 0.362030725198953 -0.931209493499543
2.654216011561849 -27.945512097072474 87.960650285709278 -0.036045179011246 0.383372805551070 -0.922890046015206
2.239281187198219 -27.943622153328853 87.965926546857659 -0.031493391587928 0.397246086469908 -0.917171583222372
1.899110227123367 -28.268216643073956 87.861385532772843 -0.027755620038556 0.414072347965972 -0.909820705527315
-2.070421249057812 27.741464084167276 88.065976906777294 0.029919958546404 -0.381231917785828 -0.923995141189563
-2.707362110136212 27.480272638532888 88.129271475004529 0.036834675431699 -0.364391538787170 -0.930517067627542
-3.292175401314076 -27.197267951451735 88.214510509026098 0.043009454136987 0.361403420456676 -0.931417067986761
-2.665453213304391 -27.805927015325970 88.018065476010932 0.036163080613833 0.381908267918644 -0.923492450697838
-2.239472121300845 -27.794157219996194 88.030505676738798 0.031495382351171 0.395687699092860 -0.917844913739327
-1.887899663176400 -28.125558427335676 87.926512645634432 0.027639532599942 0.412595096068507 -0.910495108684213
-7.403811560713924 26.830815898369309 88.073662774589891 0.102143577079681 -0.371209953875818 -0.922913787850675
-9.157393763174522 26.558838648963857 87.932693218697352 0.121281701604709 -0.354213736675776 -0.927266616246940
-9.372288352755129 -26.276229532208554 88.011789849589348 0.123547805048562 0.351233570939666 -0.928100704941362
-7.836558957638148 -27.107967781548510 87.912647309552085 0.106678287306278 0.374114196600110 -0.921226525301814
-6.727202016246691 -27.319599910282889 87.949072780904842 0.094459564888542 0.390251482977017 -0.915849971684941
-5.687982155662260 -27.646795157473854 87.947718748325627 0.083066833753876 0.407131504369365 -0.909584432188702
-12.092656043091855 25.482799261461579 87.886835736960634 0.167335070004098 -0.356411978469423 -0.919222212498281
-14.263559844204668 24.729006584729863 87.746504271666382 0.191120330747919 -0.334072331805300 -0.922967332193819
-14.545761574674213 -24.445518981275857 87.789755571749254 0.194088688068520 0.331090448945786 -0.923422273816654
-12.528341601268220 -25.797338668575009 87.749108936158066 0.171784170599647 0.359476206423905 -0.917206114102206
-10.868208561729006 -26.355172894981607 87.778103604438641 0.153564687264619 0.379497171759501 -0.912359459561778
-9.413051915244631 -26.576718142988859 87.910348743477797 0.137581881161498 0.395573475291694 -0.908070950764154
-20.122954429534669 -19.890416052331755 87.849188166548245 0.269528219373720 0.267079158002441 -0.925215251885711
-17.538518013606009 -22.347970827530016 87.831724918262466 0.241090516751609 0.307861477811275 -0.920378548865791
-15.518826532516957 -24.252290264786978 87.632113806616189 0.218825738009769 0.342467315866823 -0.913691104229134
-13.878570831906547 -25.203933716256898 87.689900696601512 0.200469597263564 0.366388806509760 -0.908609477739110
-12.584391717030716 -25.563518016873651 87.832048055722836 0.185904044043154 0.383917907701304 -0.904459355944010
-24.391626079036794 13.988754036040799 87.989139042677195 0.330315106475736 -0.188111048418383 -0.924935762038024
-26.124498664071915 9.526194091434245 88.048450626862930 0.349633540694632 -0.125170769708259 -0.928487299661109
-27.091637067888087 3.222709644464507 88.194214012698424 0.360516503622695 -0.042302796032377 -0.931793069336487
-26.900521176904583 -3.447251542371889 88.321791079576442 0.358270205647815 0.044646832883242 -0.932549794948542
-25.998304511734347 -9.532811140025798 88.159559460353464 0.348082564145161 0.125161356729116 -0.929071129311344
-24.241040505442282 -13.910349942034117 88.058670856700616 0.328732161310231 0.187286869988796 -0.925666675672244
-22.008746836813422 -17.250554878247179 88.084345201443838 0.304115581074599 0.237923393844876 -0.922445755591620
-19.830685005041200 -20.053326598166663 87.932273132695613 0.280249713145970 0.282572525802469 -0.917394607539860
-27.288753158017592 -2.670867011325063 88.229954977065347 0.376482039219574 0.036219882607544 -0.925715611972147
-26.374609503544065 -7.924384084416229 88.196735518132115 0.366429419506906 0.107598596713992 -0.924203452982627
-27.163835575612694 -6.859289270918021 88.001569195139268 0.388629444711160 0.095835043954160 -0.916396638499836
-28.220882332308989 -5.673555145863247 87.623658262812171 0.413325388930032 0.082969110481872 -0.906795594151011
-28.384252649220194 -4.905962290714562 87.683807288972616 0.427996945549257 0.074470593638568 -0.900706803173833
