ply
format ascii 1.0
element vertex 423
property double x
property double y
property double z
property double nx
property double ny
property double nz
end_header
21.664042858044539 0.781249999999935 74.967830874689596 -0.007606947552948 0.000000000000001 -0.999971066755897
21.664042858044510 2.343749999999912 74.967830874689596 -0.007606947552948 0.000000000000001 -0.999971066755897
21.664042858044560 3.906249999999944 74.967830874689596 -0.007606947552949 0.000000000000001 -0.999971066755897
21.774551671993027 5.579258271222148 74.966827310520515 -0.009080988021782 -0.001474033229587 -0.999957680545825
21.890365488879535 7.199665548712285 74.965578367446938 -0.010625790167794 -0.002246439225187 -0.999941021307816
22.008003644490536 8.762166663926569 74.964235980238257 -0.012194926563833 -0.002246454100661 -0.999923115649436
22.013305628648979 10.156249999999940 74.964360315057846 -0.012265647974510 0.000000000000001 -0.999924774110415
22.008003644490547 11.550333336072976 74.964235980238257 -0.012194926563833 0.002246454100667 -0.999923115649436
21.890365488879585 13.112834451287343 74.965578367446938 -0.010625790167795 0.002246439225192 -0.999941021307816
21.885060423082010 14.843750000000034 74.965823731980166 -0.010555027652154 -0.000000000000000 -0.999944294144060
21.779851259147261 16.685177955525685 74.966341542440389 -0.009151677459614 -0.003720527618056 -0.999951201046290
21.839582933144250 18.421401532429229 74.964923396386041 -0.009948418475980 -0.006037768873272 -0.999932284865760
21.840542348194344 20.220136887967303 74.963115170357383 -0.009961215795576 -0.009188834039847 -0.999908165537647
21.836194591079146 21.957569205586527 74.961346655521311 -0.009903222503390 -0.011522198287135 -0.999884575903979
21.724222967732089 23.464040619834620 74.902991116186172 -0.008416405923536 -0.010783481775926 -0.999906435938943
21.721442614749733 24.567740645628838 74.906557172991555 -0.008379290011343 -0.004658799167385 -0.999954040488474
21.721442614749918 25.432259354371009 74.906557172991555 -0.008379290011346 0.004658799167387 -0.999954040488473
21.782081578703885 26.199392566949733 74.898095741501876 -0.009188780919822 0.015276430824326 -0.999841085856386
21.844278058387353 27.069308181834494 74.943733910115853 -0.010011045196577 0.024502358518948 -0.999649645326342
21.847067281815765 27.651561412626073 74.913262253996706 -0.010048249724100 0.037577545516526 -0.999243193997555
21.844870478109534 28.003912867562640 74.918070407940007 -0.010010935333994 0.053676357889342 -0.998508202158337
21.842312785890474 28.454728431653468 74.970344877662455 -0.009960915314577 0.068383520536880 -0.997609379609613
21.843507184001066 28.742077775898441 74.992460680021708 -0.009960903201821 0.085215520447742 -0.996312749834220
21.848527082653202 29.185544528977825 75.008887652643295 -0.010011633938894 0.099923139289325 -0.994944789131759
21.911531026979254 29.278170008969610 75.027332918523896 -0.010821503599037 0.119135635715633 -0.992819014404180
22.025766785781244 29.244822007089311 75.059644084635238 -0.012294114045393 0.139809101608108 -0.990102151228535
22.031365956542881 29.485260350144152 75.104017083549309 -0.012328940914436 0.156752000655567 -0.987561039888880
21.976384664080506 29.443298265031661 75.076275955955651 -0.011569467349332 0.177289968999454 -0.984090653505776
22.088584713054200 29.653957031483351 75.124593561779946 -0.012989094046928 0.194245893308743 -0.980866869849588
23.363132590620751 -29.596228232527075 75.055221948963606 -0.009236673077496 -0.195152512315078 -0.980729412635092
23.369600656218434 -29.436011665343432 75.076762210466882 -0.009350513254928 -0.177385480857997 -0.984097027270506
23.478592717515923 -29.554313833089410 75.055549172265913 -0.010821722825581 -0.155967050492309 -0.987702976342491
23.473105444760733 -29.482777838502223 75.033629147543124 -0.010783570227864 -0.136778510382809 -0.990542959043474
23.300500476078565 -29.347519962050264 75.037312777931390 -0.008525214715874 -0.118217944130604 -0.992951075531711
23.122385369775479 -29.195495559414745 75.012235404894170 -0.006182986732663 -0.099791145252490 -0.994989194918347
23.113436483531604 -28.800188876333269 74.999762449700384 -0.006073953547650 -0.084443485102521 -0.996409757535544
23.112717224010108 -28.396718619442524 74.968693482699194 -0.006074081490487 -0.069155440859048 -0.997587404959404
23.120147562348297 -27.993987743985276 74.919865273022253 -0.006182827700231 -0.053808639957547 -0.998532124123980
23.237418772504252 -27.479401030190765 74.908123295104431 -0.007752017773833 -0.039873935838459 -0.999174647126910
23.403391885256660 -26.899974714788442 74.879401296239308 -0.009973860435945 -0.026782476107483 -0.999591527115730
23.405219368111350 -26.200347682188159 74.897528504118569 -0.009998256148863 -0.015263680654276 -0.999833513604573
23.295753553765433 -25.494467461883872 74.906721267056881 -0.008536958400286 -0.003828361208332 -0.999956231038004
23.232590390090625 -24.558092662412314 74.907014213037598 -0.007693771059813 0.004530004837970 -0.999960141677181
23.284897764628017 -23.284897764627893 74.904724176623574 -0.008392040643813 0.008392040643811 -0.999929571173723
23.286722764846331 -21.782082267287112 74.904184147366550 -0.008416403215143 0.009188790111963 -0.999922362132780
23.295757261240592 -19.997173641907960 74.905821173142016 -0.008537007892679 0.006219778960192 -0.999944215367001
23.467470855541809 -18.263847448918749 74.965030102169479 -0.010820606316417 0.003936207135104 -0.999933708178864
23.467468850778300 -16.639705297773268 74.965247432394193 -0.010820579575541 0.003113982896802 -0.999936607074752
23.406781082655744 -15.020252887491866 74.966035308162560 -0.010011085536291 0.002354313558648 -0.999947116288683
23.234625180087910 -13.568264667834070 74.967219534483903 -0.007714754969827 0.003828393595226 -0.999962912291369
23.058122186029347 -12.002984255682028 74.968384067111870 -0.005360439989721 0.003791306598400 -0.999978445606401
22.882574365950703 -10.324667667004782 74.969469204275541 -0.003018865758980 0.002246467480389 -0.999992919891630
22.766759661169612 -8.704259661169987 74.969837102861419 -0.001474051769636 0.001474051769641 -0.999997827169020
22.656249999999872 -7.031250000000202 74.969999999999999 0.000000000000002 0.000000000000003 -1.000000000000000
22.656249999999901 -5.468750000000177 74.969999999999999 0.000000000000001 0.000000000000002 -1.000000000000000
22.656250000000110 -3.906250000000174 74.969999999999999 -0.000000000000001 0.000000000000002 -1.000000000000000
22.656249999999908 -2.343750000000164 74.969999999999999 0.000000000000001 0.000000000000002 -1.000000000000000
22.656249999999822 -0.781250000000158 74.969999999999999 0.000000000000002 0.000000000000002 -1.000000000000000
22.656249999999858 0.781249999999850 74.969999999999999 0.000000000000002 0.000000000000002 -1.000000000000000
22.656249999999801 2.343749999999810 74.969999999999999 0.000000000000003 0.000000000000003 -1.000000000000000
22.766759661169615 4.016759661169499 74.969837102861419 -0.001474051769636 -0.001474051769635 -0.999997827169020
22.940483164286583 5.752983164286551 74.968922381321718 -0.003791292040637 -0.003791292040637 -0.999985626001357
23.118809657385491 7.376171309477808 74.967779531300167 -0.006169930070501 -0.004600791109481 -0.999970381903430
23.296268243638263 8.880765004249392 74.966718609227826 -0.008536991378395 -0.003828398082558 -0.999956230615284
23.409560014814833 10.156249999999904 74.966215217400290 -0.010048152791981 0.000000000000001 -0.999949516038419
23.406781082655876 11.542247112508148 74.966035308162560 -0.010011085536293 0.002354313558648 -0.999947116288683
23.345138054865078 13.104747472762583 74.966627109039280 -0.009188849604710 0.002354308753334 -0.999955010124574
23.342358835647730 14.843749999999892 74.966860376206540 -0.009151778520044 0.000000000000001 -0.999958121598060
23.345138054864982 16.582752527237066 74.966627109039280 -0.009188849604708 -0.002354308753329 -0.999955010124574
23.406781406732762 18.262891987951576 74.965666028512217 -0.010011089859047 -0.003923462557711 -0.999942190589732
23.299050418743960 20.052675804259088 74.965430851508586 -0.008574101890676 -0.006955126107231 -0.999939053641571
23.348317965967301 21.843677479359862 74.903049008075641 -0.009238659270689 -0.010011046313708 -0.999907208758185
23.345538271123967 23.463082545767506 74.902483289423600 -0.009201552144226 -0.010770692107429 -0.999899656780451
23.290453092108709 24.673815465755464 74.905933021756269 -0.008466200668919 -0.006074829338613 -0.999945708473585
23.295753553765458 25.494467461883549 74.906721267056881 -0.008536958400286 0.003828361208336 -0.999956231038004
23.405219368111471 26.200347682188383 74.897528504118569 -0.009998256148865 0.015263680654273 -0.999833513604573
23.345529698837851 27.015694667027006 74.882967315870545 -0.009201437709756 0.025237689667241 -0.999639131169010
23.176726219815809 27.540095634988120 74.910967075021162 -0.006942459914843 0.039064350607068 -0.999212579365361
23.058445993073917 27.993985515465795 74.920221795354252 -0.005360469053364 0.053808669659259 -0.998536875854382
22.993850324053970 28.451945354417667 74.973130993762467 -0.004492352948157 0.068420554166099 -0.997646453676147
22.994371886452686 28.744872979857519 74.995685331194153 -0.004492120186697 0.085178384750133 -0.996355590955150
23.060367211645630 29.195493758888773 75.012594974509668 -0.005360355639284 0.099791169135313 -0.994993964378693
23.239316578071811 29.286295873867381 75.030498689761515 -0.007715582613098 0.119028108060508 -0.992860906308873
23.414656421087596 29.365782422986396 75.017994608997014 -0.010011965954952 0.138323004317011 -0.990336562495010
23.478592717515870 29.554313833089559 75.055549172265927 -0.010821722825581 0.155967050492307 -0.987702976342491
23.369600656218466 29.436011665343411 75.076762210466882 -0.009350513254928 0.177385480857997 -0.984097027270506
23.363106772956900 29.716250822449268 75.079005406782642 -0.009236335723989 0.193584204593633 -0.981040185636778
24.452352565161760 -29.481512738434343 75.035269961528044 -0.003052431270897 -0.196651473429579 -0.980468704580270
24.399348697230138 -29.382298637451051 75.009256918620721 -0.002369128915521 -0.178229717467519 -0.983986054291233
24.399706171919945 -29.448688757384602 75.043081519837287 -0.002381315593104 -0.157357037012968 -0.987538906696109
24.505868369193362 -29.375824017515534 75.022680495082938 -0.003790341507503 -0.138190442012996 -0.990398422377333
24.446822323456775 -29.405829864990480 75.046650827617484 -0.003018027305237 -0.117446342927213 -0.993074643742457
24.337108584356407 -29.259127443921276 75.019944831800231 -0.001569950714371 -0.098947109113659 -0.995091455521956
24.445976332624141 -28.855798582887253 75.005503665626861 -0.003018816694887 -0.083704682039494 -0.996486032491389
24.445589208582025 -28.341167633075880 74.965868383232433 -0.003018485809475 -0.069894642274439 -0.997549812152128
24.447089478942722 -27.820119277563084 74.911381906362564 -0.003043309062278 -0.056125959248793 -0.998419057795049
24.508290329375832 -27.474100397919511 74.909606461110343 -0.003862082558034 -0.039944639216760 -0.999194430587039
24.675624921108053 -26.953239220663640 74.883143057715330 -0.006098984396049 -0.026071429439813 -0.999641477208855
24.630285509013046 -26.302693261799927 74.901635091583074 -0.005493732599293 -0.013897433429450 -0.999888333888440
24.629263846423584 -25.609371033496842 74.848676915512456 -0.005484486926167 -0.002296312177731 -0.999982323520541
24.514334745435558 -24.514334745435701 74.848832718463498 -0.003949027995131 0.003949027995133 -0.999984405056293
24.558092662412072 -23.232590390090941 74.907014213037598 -0.004530004837967 0.007693771059818 -0.999960141677181
24.560616340152677 -21.611018970823434 74.907433944951634 -0.004563694301865 0.006905205858009 -0.999965744826480
24.570518317628025 -19.986315706890085 74.907791812688785 -0.004695879290189 0.006074832557604 -0.999970522129072
24.632113270727977 -18.423816326153105 74.907477233218941 -0.005518132034815 0.006074840824364 -0.999966322696822
24.685632101793384 -16.807800719856619 74.907468773964112 -0.006232573779113 0.005360442128643 -0.999966209771247
24.627772914761824 -15.133311755329100 74.908323664630558 -0.005460191092802 0.003865461958738 -0.999977622008151
24.459669353254711 -13.576344155503197 74.969032121967629 -0.003213543460780 0.003936163205325 -0.999987089795487
24.398983009378231 -12.012886497699046 74.969206343558497 -0.002404068419077 0.003923389325051 -0.999989413679585
24.337341267959122 -10.332747590138858 74.969698443516762 -0.001581849645980 0.002354242899011 -0.999995977637945
24.276656045500633 -8.709562091001031 74.969888184853744 -0.000772389562500 0.001544779124997 -0.999998508534797
24.218750000000146 -7.031249999999826 74.969999999999999 -0.000000000000002 -0.000000000000002 -1.000000000000000
24.218750000000174 -5.468749999999788 74.969999999999999 -0.000000000000002 -0.000000000000003 -1.000000000000000
24.218750000000096 -3.906249999999799 74.969999999999999 -0.000000000000001 -0.000000000000003 -1.000000000000000
24.218750000000160 -2.343749999999857 74.969999999999999 -0.000000000000002 -0.000000000000002 -1.000000000000000
24.218750000000142 -0.781249999999833 74.969999999999999 -0.000000000000002 -0.000000000000002 -1.000000000000000
24.218749999999993 0.781250000000171 74.969999999999999 0.000000000000000 -0.000000000000002 -1.000000000000000
24.218750000000043 2.343750000000207 74.969999999999999 -0.000000000000001 -0.000000000000003 -1.000000000000000
24.276656045500495 4.022062091001094 74.969888184853744 -0.000772389562498 -0.001544779124998 -0.999998508534797
24.337341998721200 5.762886087470865 74.969329194677243 -0.001581859393373 -0.003923383853153 -0.999991052349970
24.398983755914248 7.387029148162930 74.968939148096268 -0.002404078376874 -0.004745620223595 -0.999985849647809
24.459485957788939 8.888615355681573 74.909032837306384 -0.003213669173527 -0.003936261589662 -0.999987089004224
24.517348616941671 10.156250000000144 74.909404875929710 -0.003986098210408 -0.000000000000002 -0.999992055478971
24.517348658342659 11.539610600078138 74.909190677223521 -0.003986098763084 0.002391395006299 -0.999989196064925
24.517576109652456 13.101968802216637 74.969190079714153 -0.003985942505702 0.002391372519453 -0.999989196741552
24.517576068219160 14.843750000000005 74.969404445953501 -0.003985941953037 -0.000000000000000 -0.999992056101821
24.628088258609012 16.696045249242324 74.968322382880871 -0.005460027459104 -0.003865482849704 -0.999977622820873
24.685632449055667 18.431894399457846 74.907113267326054 -0.006232578414840 -0.006182677872885 -0.999961463987800
24.632113212580620 20.103862427445964 74.906670903614582 -0.005518131258585 -0.007644005172153 -0.999955558718657
24.628379775192172 21.782080806663213 74.905717432969524 -0.005468292286640 -0.009188770613579 -0.999942830502864
24.731677398841850 23.406174754790076 74.904489974538038 -0.006847248682978 -0.010011009942465 -0.999926444727514
24.624666976686921 24.624666976686839 74.847798650435109 -0.005423072500827 -0.005423072500826 -0.999970589852172
24.629263846423839 25.609371033496583 74.848676915512456 -0.005484486926170 0.002296312177734 -0.999982323520541
24.630285509013046 26.302693261799867 74.901635091583074 -0.005493732599293 0.013897433429450 -0.999888333888440
24.565215310365943 27.063651477544596 74.886533452108452 -0.004625087576638 0.024597497296161 -0.999686736778914
24.392467981366941 27.532015151748574 74.912257411547913 -0.002317166618207 0.039172133496751 -0.999229790736934
24.329338803858455 27.820118133093096 74.911648216522266 -0.001473927813654 0.056125974502291 -0.998422607177426
24.218750000000043 28.393860223655370 74.969884929309231 -0.000000000000001 0.069193476731133 -0.997603259205712
24.218750000000135 28.803010101598645 75.001394938983367 -0.000000000000002 0.084406003698703 -0.996431445980914
24.218749999999943 29.259128357403302 75.020038289441729 0.000000000000001 0.098947096996905 -0.995092695177633
24.330048660817976 29.347417538848312 75.039983676465255 -0.001472788948233 0.118219299472697 -0.992986418902544
24.394300746688685 29.264186240140596 75.007363055812107 -0.002317501606451 0.139664208050949 -0.990196211957916
24.399706171919576 29.448688757384602 75.043081519837301 -0.002381315593099 0.157357037012967 -0.987538906696109
24.399348697229915 29.382298637450916 75.009256918620707 -0.002369128915518 0.178229717467520 -0.983986054291233
24.393345689452900 29.599649262969450 75.059028209637333 -0.002281401926733 0.195107810493016 -0.980779148172446
25.015052672225607 -29.368762579990502 75.009018237095773 0.010011725176720 -0.198124753952822 -0.980125679303486
25.018034395019161 -29.272541391405504 74.985627100732955 0.010012011084623 -0.179669534416824 -0.983676073733871
25.021485508222835 -29.499317954095517 75.047503803732525 0.009998216762431 -0.156690775706073 -0.987597102299415
25.084244170066121 -29.322795510782356 75.012573609421310 0.009201397094837 -0.138890488306504 -0.990264998144176
25.256520658809695 -29.403008858944400 75.044829224669186 0.006943619706104 -0.117483672635379 -0.993050538899949
25.377132788354309 -29.195493758888688 75.012594974509653 0.005360355639285 -0.099791169135314 -0.994993964378693
25.443128113547321 -28.744872979857480 74.995685331194153 0.004492120186697 -0.085178384750133 -0.996355590955150
25.443649675946148 -28.451945354417763 74.973130993762467 0.004492352948155 -0.068420554166098 -0.997646453676147
25.436997757082679 -27.878082189952728 74.914174810477846 0.004588194627713 -0.055353429428859 -0.998456281627054
25.431960703990928 -27.472277419108330 74.909278791479878 0.004659054235148 -0.039968955327353 -0.999190059910363
25.437556513694609 -26.889110995841286 74.882048082470163 0.004588085520029 -0.026927499721782 -0.999626859998267
25.497472208450716 -26.190409606368899 74.840575733364332 0.003791286460244 -0.015408689293669 -0.999874091294113
25.610326320317352 -25.610326320317323 74.849609686299942 0.002283549494758 -0.002283549494759 -0.999994785388109
25.719704896419866 -24.518930455604171 74.849372768876947 0.000822245872814 0.004010426928579 -0.999991620158677
25.610190716845921 -23.237890191792491 74.907546571817036 0.002283530678869 0.007764519981211 -0.999967248322214
25.607667267996469 -21.605718787170382 74.908049347157032 0.002317217087218 0.006834451837810 -0.999973960047484
25.605842600265621 -19.983538676096181 74.908429213257392 0.002341575220056 0.006037760994476 -0.999979031013982
25.547025367233161 -18.423816917386358 74.908251567648449 0.003126747200198 0.006074848716945 -0.999976659560118
25.548592320248360 -16.808756533256986 74.908557314199683 0.003105829391959 0.005373201618702 -0.999980741078623
25.659016683949499 -15.135834935328283 74.909330830057485 0.001631735630096 0.003899144778111 -0.999991067014517
25.662748070915924 -13.575160807426739 74.909329684159374 0.001581924029957 0.003923518988476 -0.999991051717519
25.723387319295412 -12.013617710719645 74.909397307302882 0.000772429324584 0.003936293027895 -0.999991954442703
25.781249999999986 -10.335526993407193 74.969785645682848 0.000000000000000 0.002391316438671 -0.999997140798757
25.781250000000011 -8.711385783068199 74.969907708510235 -0.000000000000000 0.001569104749476 -0.999998768954385
25.781250000000025 -7.031250000000129 74.969999999999999 -0.000000000000000 0.000000000000002 -1.000000000000000
25.781250000000043 -5.468750000000162 74.969999999999999 -0.000000000000001 0.000000000000002 -1.000000000000000
25.781249999999925 -3.906250000000139 74.969999999999999 0.000000000000001 0.000000000000002 -1.000000000000000
25.781250000000046 -2.343750000000131 74.969999999999999 -0.000000000000001 0.000000000000002 -1.000000000000000
25.781250000000014 -0.781250000000124 74.969999999999999 -0.000000000000000 0.000000000000002 -1.000000000000000
25.781249999999964 0.781249999999860 74.969999999999999 0.000000000000000 0.000000000000002 -1.000000000000000
25.781250000000011 2.343749999999858 74.969999999999999 -0.000000000000000 0.000000000000002 -1.000000000000000
25.781249999999908 4.023885783068168 74.969907708510235 0.000000000000001 -0.001569104749475 -0.999998768954385
25.723343223740770 5.763841798673236 74.969396873895278 0.000772399309847 -0.003936131768350 -0.999991955100644
25.662747912761869 7.386756147725989 74.909062686928934 0.001581926141211 -0.004745776901962 -0.999987487477359
25.601153978274631 8.887660397516553 74.909206924791235 0.002404165288017 -0.003923513516440 -0.999989412959434
25.598377098973401 10.156250000000151 74.909776781819815 0.002441234828816 -0.000000000000002 -0.999997020181816
25.601154110780882 11.542387813362357 74.909575902215664 0.002404163519145 0.002354321007044 -0.999994338569159
25.662748178451132 13.104887453395062 74.909698661591506 0.001581922594432 0.002354325812374 -0.999995977327346
25.665524903445245 14.843749999999964 74.909910610693075 0.001544855113533 0.000000000000000 -0.999998806710627
25.720610751618800 16.698335165358952 74.909406012447675 0.000809494705396 -0.003899147848871 -0.999992070650750
25.609231780497964 18.431895293907957 74.908370734977879 0.002296331858257 -0.006182689813215 -0.999978250366812
25.604888212850351 20.102040473323520 74.907617735151589 0.002354315674138 -0.007619683264231 -0.999968198306656
25.547981802711234 21.779304717283750 74.906499722505686 0.003113979405804 -0.009151711617725 -0.999953273561683
25.604889333683378 23.406175974232170 74.906038527935436 0.002354300711742 -0.010011026221228 -0.999947116912768
25.609371033496529 24.629263846423779 74.848676915512456 0.002296312177735 -0.005484486926169 -0.999982323520541
25.610326320317270 25.610326320317430 74.849609686299942 0.002283549494759 0.002283549494757 -0.999994785388109
25.607804363661767 26.300742771114418 74.842531708459234 0.002317242970451 0.013934632316441 -0.999900223225908
25.553287319458843 26.946980891380509 74.884026317875623 0.003043154192246 0.026154974083827 -0.999653268160134
25.549609821520395 27.472277109549701 74.909734968457272 0.003089771621710 0.039968959456453 -0.999196144703979
25.552910521057214 27.820119277563066 74.911381906362564 0.003043309062279 0.056125959248793 -0.998419057795049
25.554410791418093 28.341167633075919 74.965868383232433 0.003018485809473 0.069894642274439 -0.997549812152128
25.443128113547246 28.744872979857352 74.995685331194139 0.004492120186698 0.085178384750135 -0.996355590955150
25.377132788354334 29.195493758888745 75.012594974509668 0.005360355639285 0.099791169135313 -0.994993964378693
25.256520658809517 29.403008858944453 75.044829224669186 0.006943619706107 0.117483672635378 -0.993050538899950
25.195752859394101 29.434383806977564 75.029092947721978 0.007729335189517 0.137417375485445 -0.990483075217452
25.138940782175233 29.558113328486023 75.057905621472159 0.008452549254175 0.155917050552888 -0.987733986333362
25.137841073802051 29.272555865438306 74.986753438071233 0.008440363717670 0.179669344543640 -0.983690849246638
25.020793106783785 29.422275985873327 75.019874097161789 0.009936716231755 0.197425506521974 -0.980267530343157
25.400628488359764 -29.353380330138982 75.045883638449581 0.025370433628936 -0.198170383468612 -0.979839190996861
25.578334145155164 -29.203533921539481 75.017106270321790 0.023140855352534 -0.180432770723037 -0.983315064494977
25.593878220804463 -29.382700037516543 75.012347617282572 0.023027658628708 -0.158225423904243 -0.987134460024774
25.718060425229428 -29.307262957607854 75.056616458590682 0.021444262957005 -0.138985451027465 -0.990062214201170
26.062452648179097 -29.285307050661878 75.021704776341025 0.016955105886210 -0.119041192924945 -0.992744538525090
26.243052994762763 -29.016133155218963 74.987400674014282 0.014600039862545 -0.102170272513344 -0.994659778140526
26.255870278649848 -28.683937010082257 74.983322027450996 0.014453032036006 -0.085987949912551 -0.996191338215106
26.368355291892914 -28.402039085526738 74.964106363938839 0.012979304166428 -0.069084642907162 -0.997526365454941
26.364282844115554 -27.996771852978089 74.915048756386369 0.013054340342322 -0.053771533346953 -0.998467929579986
26.300889309212049 -27.474096145419523 74.902906418047991 0.013910373359850 -0.039944695939449 -0.999105060931679
26.136939779658100 -26.776878061713266 74.870003901699604 0.016110135100012 -0.028425736727897 -0.999466077982908
26.133452108411571 -26.133452108411593 74.890443035324836 0.016156693253083 -0.016156693253082 -0.999738927183618
26.190409606369169 -25.497472208450585 74.840575733364332 0.015408689293665 -0.003791286460246 -0.999874091294113
26.360555899147958 -24.514562274839577 74.902963389028230 0.013125004683648 0.003948902347345 -0.999906065799336
26.260988198121666 -23.344578877451298 74.899011543790479 0.014454169027878 0.009188744859849 -0.999853311224009
26.260989754390259 -21.664533526775138 74.899999575541315 0.014454148252700 0.007619590532307 -0.999866500808187
26.250129970661874 -19.993443710976997 74.900590599840825 0.014599119334376 0.006169986797183 -0.999874390599931
26.073767654923358 -18.374040628688132 74.898137389053218 0.016953442064833 0.005410367490163 -0.999841641824232
26.014841326977354 -16.696048116223601 74.957660841241562 0.017725872656031 0.003865521091418 -0.999835412048040
26.130659115517279 -15.129812328880218 74.959638998930487 0.016181017533450 0.003815690661334 -0.999861798038288
26.306207701616902 -13.565483987828403 74.962281295457046 0.013839433085009 0.003791303025589 -0.999897042756530
26.482710073672919 -12.005760642956266 74.964505835335842 0.011485126401588 0.003828339908714 -0.999926715157207
26.654863713381236 -10.332748629083202 74.966627134465909 0.009188826018658 0.002354256757146 -0.999955010463731
26.715550041463484 -8.709562772724514 74.967278543467003 0.008379351187629 0.001544788218281 -0.999963699392651
26.773457141955539 -7.031250000000042 74.967830874689596 0.007606947552947 0.000000000000001 -0.999971066755897
26.773457141955735 -5.468750000000039 74.967830874689596 0.007606947552945 0.000000000000001 -0.999971066755897
26.773457141955536 -3.906250000000049 74.967830874689596 0.007606947552947 0.000000000000001 -0.999971066755897
26.773457141955614 -2.343750000000025 74.967830874689596 0.007606947552946 0.000000000000000 -0.999971066755897
26.773457141955653 -0.781250000000056 74.967830874689596 0.007606947552946 0.000000000000001 -0.999971066755897
26.773457141955607 0.781249999999961 74.967830874689596 0.007606947552946 0.000000000000001 -0.999971066755897
26.773457141955689 2.343749999999984 74.967830874689596 0.007606947552945 0.000000000000000 -0.999971066755897
26.715550041463597 4.022062772724213 74.967278543467003 0.008379351187627 -0.001544788218277 -0.999963699392651
26.544352146607348 5.755760306558328 74.965188508773323 0.010662903206518 -0.003828335421613 -0.999935821112089
26.366894007870254 7.376169475111140 74.962842014736410 0.013029958545148 -0.004600766641472 -0.999904522005287
26.188567468097929 8.877985079227486 74.960560721873776 0.015408597197573 -0.003791317583400 -0.999874092595355
26.125358522606945 10.156250000000039 74.960098867382882 0.016251720386729 -0.000000000000001 -0.999867932071267
26.130660598783003 11.550328398966787 74.959995652807777 0.016180997748659 0.002246519955092 -0.999866555326234
26.248300796525793 13.112829514216505 74.961807112572842 0.014611834113301 0.002246505079145 -0.999890717788086
26.253605954437891 14.843749999999996 74.962073650346184 0.014541070368976 0.000000000000000 -0.999894273047168
26.248298932015967 16.692311594873676 74.961450464365953 0.014611858983380 -0.003815680870664 -0.999885960575776
26.241172737455816 18.426969088114820 74.960491318076407 0.014706912932429 -0.006112032654593 -0.999873166841089
26.299911614770359 20.104818967913129 74.900530839671404 0.013934566616335 -0.007656774368083 -0.999873592840360
26.199392566949815 21.782081578703863 74.898095741501876 0.015276430824325 -0.009188780919822 -0.999841085856386
26.200347682188340 23.405219368111496 74.897528504118569 0.015263680654274 -0.009998256148865 -0.999833513604573
26.302693261799863 24.630285509013046 74.901635091583074 0.013897433429450 -0.005493732599293 -0.999888333888440
26.300742771114443 25.607804363661845 74.842531708459234 0.013934632316440 0.002317242970450 -0.999900223225908
26.307035759181396 26.307035759181211 74.895651056424953 0.013839463900929 0.013839463900932 -0.999808450893405
26.315140410882456 26.837532520990930 74.874364573632391 0.013731272048025 0.027616038966881 -0.999524290129921
26.478361308623978 27.416187530811648 74.902829484503059 0.011543133138269 0.040717119770420 -0.999104034740604
26.535608346540759 27.825427452592820 74.907668924934953 0.010770913680651 0.056055211880677 -0.998369571170664
26.426382522236569 28.285945602313660 74.956708501552029 0.012207152066047 0.070629466369745 -0.997427924172349
26.255870278650089 28.683937010082186 74.983322027450996 0.014453032036003 0.085987949912552 -0.996191338215105
26.243052994762650 29.016133155219148 74.987400674014296 0.014600039862546 0.102170272513342 -0.994659778140527
26.062452648179008 29.285307050661629 75.021704776340997 0.016955105886211 0.119041192924949 -0.992744538525089
25.776598545097610 29.424339487465591 75.074203431596160 0.020672094115584 0.137441109517668 -0.990294201709486
25.767276906843474 29.556238069762379 75.043800875487236 0.020745796725313 0.155941728256845 -0.987548373147615
25.759110338790574 29.262606220134487 75.031957457004779 0.020771263090961 0.179658458249646 -0.983509732035716
25.583055452674827 29.291315434792125 75.037806798701169 0.022988569621689 0.198980735934298 -0.979733735457647
26.083516253367307 -29.410163975694630 75.029414442878192 0.036855121381808 -0.197428985824590 -0.979624160371826
26.145571685858609 -29.301480324502116 75.066016910870161 0.036158196648872 -0.179008116247517 -0.983182932689852
26.159442584094428 -29.253747861143278 75.022491566096420 0.036118440708818 -0.159796214843612 -0.986489040974312
26.286319301530515 -29.131488153516937 75.003596642211775 0.034559170273968 -0.141304073954400 -0.989362836594272
26.468730181386242 -29.102085878203795 75.031315749885351 0.032229536144569 -0.121369352397147 -0.992084037417498
26.649291342088677 -28.889753603194553 75.008769174245799 0.029913302291734 -0.103764034417567 -0.994152010261707
26.711282777455569 -28.680146642676142 74.958756020875995 0.029161249137032 -0.086038306859623 -0.995864966399309
26.772846977471524 -28.400444870854571 74.939980473570031 0.028388596440831 -0.069105856675255 -0.997205328989621
26.773624248761397 -28.001676745750892 74.951467942888186 0.028400928901833 -0.053663247492997 -0.998155119761462
26.773486412835222 -27.366431952294011 74.935491205517181 0.028425477637809 -0.041347701555458 -0.998740386585595
26.719085036713597 -26.719085036713498 74.906164758628137 0.029173869058109 -0.029173869058110 -0.999148522857518
26.776878061713120 -26.136939779658043 74.870003901699604 0.028425736727899 -0.016110135100013 -0.999466077982908
26.889110995841300 -25.437556513694584 74.882048082470163 0.026927499721782 -0.004588085520030 -0.999626859998267
27.063651964057378 -24.447667207255382 74.886985046736683 0.024597490801530 0.003055896505879 -0.999692765274819
27.015695047247856 -23.283933368874230 74.883508969325575 0.025237684591538 0.008379166584892 -0.999646361891945
27.012915044931827 -21.727952237702898 74.883383806219712 0.025274795822563 0.008466189263154 -0.999644691045517
27.000530297657509 -20.171277202627170 74.943041688978710 0.025419763936808 0.008537110879381 -0.999640412017857
26.884716820973082 -18.489227778097739 74.940932783683706 0.026964561544977 0.006942480700250 -0.999612282028594
26.777938629606187 -16.582754055899731 74.939575906385429 0.028388840474774 0.002354329143654 -0.999594183091709
26.838628090142503 -14.959566333626276 74.941393276444643 0.027579323860978 0.001544835715970 -0.999618424389017
27.007050703647383 -13.391759021943217 74.945858656691655 0.025332790400862 0.001474043243207 -0.999677986617202
27.122865260179307 -11.887163811727989 74.948596222062719 0.023787978388965 0.002246416056129 -0.999714502095008
27.240503094116818 -10.324662696535714 74.951303020088886 0.022218846283623 0.002246401180949 -0.999750607177390
27.356316594319171 -8.704256399727754 74.953895127428666 0.020674048361756 0.001474008266343 -0.999785182438691
27.466825106097403 -7.031250000000206 74.956180238688873 0.019200011923471 0.000000000000003 -0.999815662780964
27.466825106097360 -5.468750000000233 74.956180238688873 0.019200011923471 0.000000000000003 -0.999815662780964
27.466825106097350 -3.906250000000215 74.956180238688873 0.019200011923471 0.000000000000003 -0.999815662780964
27.466825106097325 -2.343750000000255 74.956180238688873 0.019200011923472 0.000000000000003 -0.999815662780964
27.466825106097382 -0.781250000000235 74.956180238688873 0.019200011923471 0.000000000000003 -0.999815662780964
27.466825106097435 0.781249999999756 74.956180238688873 0.019200011923470 0.000000000000003 -0.999815662780964
27.466825106097314 2.343749999999750 74.956180238688873 0.019200011923472 0.000000000000003 -0.999815662780964
27.356316594319040 4.016756399727790 74.953895127428666 0.020674048361758 -0.001474008266344 -0.999785182438691
27.240503094116615 5.637162696535732 74.951303020088886 0.022218846283625 -0.002246401180949 -0.999750607177390
27.122865260179069 7.199663811728099 74.948596222062719 0.023787978388968 -0.002246416056130 -0.999714502095007
27.007050703647341 8.704259021943004 74.945858656691655 0.025332790400862 -0.001474043243204 -0.999677986617202
26.896538179633435 10.156249999999815 74.943058106799185 0.026806880357030 0.000000000000002 -0.999640631009726
26.896538179633431 11.718749999999826 74.943058106799185 0.026806880357030 0.000000000000002 -0.999640631009726
26.896538179633449 13.281249999999789 74.943058106799185 0.026806880357030 0.000000000000003 -0.999640631009726
26.896538179633424 14.843749999999824 74.943058106799185 0.026806880357030 0.000000000000002 -0.999640631009726
26.838628090142471 16.522066333626000 74.941393276444643 0.027579323860978 -0.001544835715966 -0.999618424389017
26.835850929357093 18.261076476728380 74.940835950229996 0.027616367488901 -0.003899246054800 -0.999610990399226
26.945406606383653 20.112416434129919 74.942099241758314 0.026155040597790 -0.007751986583032 -0.999627841026521
26.951669758295992 21.844281902157704 74.940758055564018 0.026071498488782 -0.010011096467356 -0.999609951388076
26.899974714788456 23.403391885256379 74.879401296239308 0.026782476107483 -0.009973860435942 -0.999591527115730
26.953239220663434 24.675624921107961 74.883143057715316 0.026071429439815 -0.006098984396048 -0.999641477208855
26.946980891380605 25.553287319458811 74.884026317875623 0.026154974083826 0.003043154192247 -0.999653268160134
26.837532520990916 26.315140410882435 74.874364573632391 0.027616038966881 0.013731272048025 -0.999524290129921
26.780737140093159 26.780737140093120 74.909714257663140 0.028351512070253 0.028351512070253 -0.999195868449555
26.946355170950909 27.418694592304156 74.882286785788352 0.026142388009192 0.040683678907508 -0.998830022486172
26.947610185981382 27.881940013060870 74.949683499740203 0.026083896844035 0.055257823770664 -0.998131355703026
26.890787506883356 28.282554144456775 74.934982548359201 0.026819194851852 0.070674595549477 -0.997138822998792
26.827591390644617 28.621999143598089 74.957025315385636 0.027616030415244 0.086810825779220 -0.995841973101975
26.760489133766413 28.778514809890847 75.000339168771049 0.028439507836098 0.105238372300983 -0.994040280566879
26.468730181386036 29.102085878203859 75.031315749885351 0.032229536144572 0.121369352397146 -0.992084037417498
26.286378975194403 29.250436510658542 75.020491101631166 0.034558383126310 0.139735041410651 -0.989585689244574
26.218187174521880 29.433798875867062 75.053562422622761 0.035345993760396 0.157428680133240 -0.986897599245533
26.209582127221438 29.374085656482301 75.020511753593169 0.035347593036814 0.178197199416931 -0.983359703153666
26.146564871451510 29.347072830868921 75.019017600123959 0.036031924905973 0.198252737552305 -0.979488413632641
26.704335111359473 -29.451336175278570 75.118902278888214 0.049073326667195 -0.196583415783098 -0.979258275047428
26.652425399279920 -29.405232523364177 75.099632224152288 0.049945355329408 -0.177509717008714 -0.982850833976604
26.664540870843595 -29.130093457530783 75.017038554227355 0.049983039405550 -0.161294922381674 -0.985639712971060
26.737043495746661 -28.949618861891850 74.990993948018954 0.049185534522912 -0.143589444287705 -0.988414313272953
26.696864711606267 -28.919480172958391 75.014040332971618 0.049833337143529 -0.123685689351851 -0.991069366269938
26.928325227171801 -28.660963377275060 74.995316968265300 0.046886833172139 -0.106711516656402 -0.993183908995700
26.996483566986996 -28.616743741741217 74.965239436130432 0.046094071857334 -0.086811446412568 -0.995157831357101
27.114737496059593 -28.283590747617861 74.947294206247051 0.044595299879543 -0.070604430958412 -0.996507036381426
27.235501867914625 -27.886764166011147 74.965937889739166 0.043023927239992 -0.055149512095660 -0.997550737055744
27.413750033768881 -27.413750033769141 74.905506142156582 0.040717046064656 -0.040717046064652 -0.998340745597182
27.366431952294032 -26.773486412835162 74.935491205517167 0.041347701555457 -0.028425477637809 -0.998740386585595
27.474096145419278 -26.300889309212209 74.902906418047991 0.039944695939452 -0.013910373359848 -0.999105060931679
27.472277419108373 -25.431960703990967 74.909278791479878 0.039968955327353 -0.004659054235148 -0.999190059910363
27.474101831625340 -24.276650136762992 74.910143705120561 0.039944620093033 0.000772310747806 -0.999201596706957
27.479403579258214 -23.116037778389163 74.908966774182929 0.039873901837292 0.006132956894613 -0.999185898014978
27.479400980464312 -21.736565477921896 74.907619643803557 0.039873936501743 0.008574302760063 -0.999167929089016
27.471706531534881 -20.343121407802396 74.965722135288757 0.039944601738839 0.010820623854490 -0.999143304482057
27.469885930636018 -18.655402588744110 74.966900846412543 0.039968866711502 0.009151707167055 -0.999159014346429
27.471716164799322 -16.685387101746652 74.969598976312341 0.039944473346670 0.003720339887334 -0.999194975027487
27.477010309114416 -14.954338013715823 74.970248525086291 0.039873912979949 0.001473917282631 -0.999203632214931
27.587602858862557 -13.281249999999847 74.974661660797878 0.038399935241069 -0.000000000000002 -0.999262450497106
27.587602858862653 -11.718749999999815 74.974661660797878 0.038399935241068 -0.000000000000002 -0.999262450497106
27.587602858862624 -10.156249999999888 74.974661660797878 0.038399935241069 -0.000000000000001 -0.999262450497106
27.587602858862606 -8.593749999999813 74.974661660797878 0.038399935241069 -0.000000000000002 -0.999262450497106
27.587602858862667 -7.031249999999865 74.974661660797892 0.038399935241068 -0.000000000000002 -0.999262450497106
27.587602858862763 -5.468749999999846 74.974661660797892 0.038399935241067 -0.000000000000002 -0.999262450497106
27.587602858862564 -3.906249999999819 74.974661660797878 0.038399935241069 -0.000000000000002 -0.999262450497106
27.587602858862592 -2.343749999999846 74.974661660797878 0.038399935241069 -0.000000000000002 -0.999262450497106
27.587602858862702 -0.781249999999837 74.974661660797892 0.038399935241068 -0.000000000000002 -0.999262450497106
27.587602858862564 0.781250000000161 74.974661660797878 0.038399935241069 -0.000000000000002 -0.999262450497106
27.587602858862606 2.343750000000143 74.974661660797878 0.038399935241069 -0.000000000000002 -0.999262450497106
27.587602858862656 3.906250000000150 74.974661660797878 0.038399935241068 -0.000000000000002 -0.999262450497106
27.587602858862653 5.468750000000171 74.974661660797878 0.038399935241068 -0.000000000000002 -0.999262450497106
27.587602858862667 7.031250000000167 74.974661660797892 0.038399935241068 -0.000000000000002 -0.999262450497106
27.587602858862660 8.593750000000188 74.974661660797878 0.038399935241068 -0.000000000000003 -0.999262450497106
27.587602858862606 10.156250000000139 74.974661660797878 0.038399935241069 -0.000000000000002 -0.999262450497106
27.587602858862709 11.718750000000142 74.974661660797892 0.038399935241067 -0.000000000000002 -0.999262450497106
27.587602858862613 13.281250000000179 74.974661660797878 0.038399935241069 -0.000000000000002 -0.999262450497106
27.587602858862709 14.843750000000190 74.974661660797892 0.038399935241067 -0.000000000000003 -0.999262450497106
27.587618019665186 16.627435505459790 74.974335978947266 0.038399733177860 -0.002947960888442 -0.999258109808707
27.587619745007075 18.423574519337254 74.973282728651910 0.038399710182499 -0.006061902163631 -0.999244072086524
27.587614821489041 20.279593757056471 74.970927309887415 0.038399775803158 -0.009973927189877 -0.999212679060208
27.589912198796899 21.847068649771249 74.910918456031965 0.038399863961626 -0.010048267970805 -0.999211930852767
27.479401030190989 23.237418772504419 74.908123295104431 0.039873935838456 -0.007752017773835 -0.999174647126910
27.474100397919504 24.508290329375956 74.909606461110343 0.039944639216760 -0.003862082558036 -0.999194430587039
27.472277109549623 25.549609821520402 74.909734968457272 0.039968959456454 0.003089771621710 -0.999196144703979
27.416187530811470 26.478361308623800 74.902829484503044 0.040717119770422 0.011543133138271 -0.999104034740603
27.418694592304011 26.946355170951058 74.882286785788338 0.040683678907510 0.026142388009190 -0.998830022486172
27.525900986219678 27.525900986219810 74.914485777880017 0.039222297931232 0.039222297931230 -0.998460426201253
27.464137241570224 27.879596571414680 74.975053024194622 0.039981540365000 0.055244889269266 -0.997672029596735
27.350899673574922 28.167485261849606 74.949174514023269 0.041455262949409 0.072148181600191 -0.996532037149625
27.286745016073620 28.444729946754904 74.962919119102864 0.042240873276601 0.089094916411059 -0.995127029325672
27.214467764108935 28.597180031000697 75.001398976071187 0.043097367711443 0.107556217308956 -0.993264454722172
27.036780048883784 28.977900093364966 75.037626313532527 0.045342448819081 0.122913857928855 -0.991380979172051
26.914933285088686 29.125651216096188 75.024993470278275 0.046840868787549 0.141269260365148 -0.988862441943829
26.840238717321064 29.252464833337154 75.045662845990492 0.047674566846393 0.159687099811626 -0.986015804046649
26.820245245490135 29.296384731233424 75.088234371396325 0.047749047958512 0.178934239873925 -0.982701666946687
26.758028006967240 29.287879136465655 75.027279618863787 0.048411245832130 0.198869809048067 -0.978829479698158
27.197950712419424 -29.500432998574393 75.128867010399716 0.062958177511796 -0.195790243603303 -0.978622730368630
27.044377788552268 -29.349620860194030 75.082030653279347 0.065213445945439 -0.178097674118033 -0.981849492000515
27.166034178100581 -29.109127946502685 75.074119137075002 0.063822849559221 -0.161316044254195 -0.984836929516922
27.293275088649089 -28.869709841605349 75.044001334825893 0.062349979093972 -0.144414267119287 -0.987551011117593
27.149516097167691 -28.796689945377025 74.995161808427270 0.064445332050592 -0.125208713592383 -0.990035139385179
27.219466517718633 -28.653101996230191 74.984111397008149 0.063673196801394 -0.106730819157997 -0.992247074196217
27.388282387684473 -28.607211176593680 75.021699809058617 0.061537012754348 -0.086799719329441 -0.994323390444779
27.396601989653867 -28.267784527660805 74.998420180745441 0.061524598570903 -0.070701785110038 -0.995598303209152
27.472078675325079 -27.868112766245169 74.956162823380879 0.060619217187541 -0.055353506631496 -0.996624954439315
27.652711194777584 -27.293497751512909 74.955111040473014 0.058263989424117 -0.042252192261971 -0.997406667205230
27.767845978213160 -26.715593693070744 74.936856826877417 0.056777254252055 -0.029173742268335 -0.997960538378977
27.770307839996011 -26.195781140031663 74.900116417837722 0.056789846194909 -0.015300131413679 -0.998268911339967
27.767501084880720 -25.326432484472228 74.907372709342752 0.056827254633071 -0.006061808816844 -0.998365623208620
27.709517780682937 -24.218749999999979 74.905430581664220 0.057600056235067 -0.000000000000000 -0.998339738526779
27.878082189952899 -23.000502242917392 74.914174810477860 0.055353429428856 0.004588194627714 -0.998456281627054
27.886180731217650 -21.844876768939457 74.911648689199069 0.055245492053610 0.010011019178188 -0.998422613477263
27.885657350065745 -20.401756591869290 74.970423367180757 0.055208318683370 0.011592843146481 -0.998407555828749
27.882866890065372 -18.658731977359842 74.972147777985711 0.055245480222861 0.009188733218269 -0.998430520415311
27.874769004430341 -16.632945059753450 74.974531509595664 0.055353322620451 0.003018978023085 -0.998462265409451
27.706061777308829 -14.843750000000123 74.965330965975824 0.057600056235067 0.000000000000002 -0.998339738526779
27.706061777308790 -13.281250000000080 74.965330965975824 0.057600056235067 0.000000000000001 -0.998339738526779
27.706061777308747 -11.718750000000089 74.965330965975824 0.057600056235068 0.000000000000001 -0.998339738526779
27.706061777308804 -10.156250000000115 74.965330965975824 0.057600056235067 0.000000000000002 -0.998339738526779
27.706061777308854 -8.593750000000108 74.965330965975824 0.057600056235067 0.000000000000001 -0.998339738526779
27.706061777308758 -7.031250000000131 74.965330965975824 0.057600056235068 0.000000000000002 -0.998339738526779
27.706061777308740 -5.468750000000122 74.965330965975824 0.057600056235068 0.000000000000002 -0.998339738526779
27.706061777308790 -3.906250000000115 74.965330965975824 0.057600056235067 0.000000000000002 -0.998339738526779
27.706061777308779 -2.343750000000145 74.965330965975824 0.057600056235068 0.000000000000002 -0.998339738526779
27.706061777308754 -0.781250000000124 74.965330965975824 0.057600056235068 0.000000000000002 -0.998339738526779
27.706061777308783 0.781249999999894 74.965330965975824 0.057600056235067 0.000000000000001 -0.998339738526779
27.706061777308808 2.343749999999880 74.965330965975824 0.057600056235067 0.000000000000002 -0.998339738526779
27.706061777308769 3.906249999999892 74.965330965975824 0.057600056235068 0.000000000000001 -0.998339738526779
27.706061777308715 5.468749999999893 74.965330965975824 0.057600056235068 0.000000000000001 -0.998339738526779
27.706061777308879 7.031249999999906 74.965330965975838 0.057600056235066 0.000000000000001 -0.998339738526779
27.706061777308758 8.593749999999867 74.965330965975824 0.057600056235068 0.000000000000002 -0.998339738526779
27.706061777308733 10.156249999999863 74.965330965975824 0.057600056235068 0.000000000000002 -0.998339738526779
27.706061777308708 11.718749999999860 74.965330965975824 0.057600056235068 0.000000000000002 -0.998339738526779
27.706061777308690 13.281249999999854 74.965330965975824 0.057600056235069 0.000000000000002 -0.998339738526779
27.706061777308729 14.843749999999867 74.965330965975824 0.057600056235068 0.000000000000002 -0.998339738526779
27.874769004430320 16.632945059753535 74.974531509595664 0.055353322620451 -0.003018978023086 -0.998462265409451
27.993553102890829 18.430218021446233 74.979944992192799 0.053771432908632 -0.006145532313840 -0.998534358665505
28.001657261987376 20.282008151642604 74.978042416186753 0.053663506965143 -0.009998110955422 -0.998509021390155
28.000697398443020 21.845470683242404 74.977981179413391 0.053676289806325 -0.010010929328038 -0.998508205878458
27.993987743985127 23.120147562348176 74.919865273022253 0.053808639957549 -0.006182827700229 -0.998532124123980
27.820119277563151 24.447089478942807 74.911381906362564 0.056125959248792 -0.003043309062279 -0.998419057795049
27.820119277563052 25.552910521057211 74.911381906362564 0.056125959248793 0.003043309062279 -0.998419057795049
